8.605231285095214844e+00,1.690098571777343750e+01,-3.245461654663085938e+01
1.683905029296875000e+01,6.741235733032226562e+00,-3.050224113464355469e+01
1.397727870941162109e+01,1.233499717712402344e+01,-2.956883049011230469e+01
9.891844749450683594e+00,1.726411056518554688e+01,-2.851053619384765625e+01
1.835184097290039062e+01,6.546232223510742188e+00,-2.645127677917480469e+01
1.536970806121826172e+01,1.237539196014404297e+01,-2.547859764099121094e+01
1.111233139038085938e+01,1.751180458068847656e+01,-2.437577629089355469e+01
1.974202156066894531e+01,6.307505607604980469e+00,-2.222375297546386719e+01
1.665937805175781250e+01,1.233307456970214844e+01,-2.121829605102539062e+01
1.225856876373291016e+01,1.764253234863281250e+01,-2.007831954956054688e+01
2.099981307983398438e+01,6.026438713073730469e+00,-1.784714317321777344e+01
1.783730506896972656e+01,1.220799922943115234e+01,-1.681564521789550781e+01
1.332262802124023438e+01,1.765496635437011719e+01,-1.564616203308105469e+01
2.211718368530273438e+01,5.705256938934326172e+00,-1.335120868682861328e+01
1.889616012573242188e+01,1.200145435333251953e+01,-1.230060291290283203e+01
1.429765701293945312e+01,1.754940986633300781e+01,-1.110941886901855469e+01
2.308692359924316406e+01,5.345786094665527344e+00,-8.766140937805175781e+00
1.982867622375488281e+01,1.171465301513671875e+01,-7.703402996063232422e+00
1.517714977264404297e+01,1.732659912109375000e+01,-6.498481273651123047e+00
2.390184593200683594e+01,4.950592994689941406e+00,-4.122281074523925781e+00
2.062827491760253906e+01,1.134932041168212891e+01,-3.054553270339965820e+00
1.595490169525146484e+01,1.698763656616210938e+01,-1.843971014022827148e+00
2.455705070495605469e+01,4.522277832031250000e+00,5.491272211074829102e-01
2.129004859924316406e+01,1.090818881988525391e+01,1.614714741706848145e+00
1.662600326538085938e+01,1.653512001037597656e+01,2.822868585586547852e+00
2.504803466796875000e+01,4.063700199127197266e+00,5.216849327087402344e+00
2.180951118469238281e+01,1.039410495758056641e+01,6.273162841796875000e+00
1.718608093261718750e+01,1.597219562530517578e+01,7.470810413360595703e+00
2.537118148803710938e+01,3.577937126159667969e+00,9.849633216857910156e+00
2.218279647827148438e+01,9.810381889343261719e+00,1.088959693908691406e+01
1.763089370727539062e+01,1.530213260650634766e+01,1.206871223449707031e+01
2.552491950988769531e+01,3.068248033523559570e+00,1.441658687591552734e+01
2.240781021118164062e+01,9.161051750183105469e+00,1.543327426910400391e+01
1.795794868469238281e+01,1.452987480163574219e+01,1.658597373962402344e+01
2.550792884826660156e+01,2.538058280944824219e+00,1.888714408874511719e+01
2.248311996459960938e+01,8.450572013854980469e+00,1.987373733520507812e+01
1.816493034362792969e+01,1.366046905517578125e+01,2.099232292175292969e+01
-6.997242450714111328e+00,8.142909049987792969e+00,-5.623900222778320312e+01
-8.912677764892578125e+00,8.779603958129882812e+00,-5.589304351806640625e+01
-5.841884613037109375e+00,1.015773868560791016e+01,-5.525589370727539062e+01
-7.418795108795166016e+00,1.089209365844726562e+01,-5.495222091674804688e+01
-9.057975769042968750e+00,1.122676563262939453e+01,-5.467501831054687500e+01
-4.834701061248779297e+00,1.171598339080810547e+01,-5.390898895263671875e+01
-6.920792102813720703e+00,1.268745231628417969e+01,-5.350725936889648438e+01
-9.089241981506347656e+00,1.313019847869873047e+01,-5.314055252075195312e+01
-3.795204639434814453e+00,1.319591140747070312e+01,-5.220180130004882812e+01
-6.376530647277832031e+00,1.439800453186035156e+01,-5.170470428466796875e+01
-9.059766769409179688e+00,1.494589996337890625e+01,-5.125093841552734375e+01
-2.730382680892944336e+00,1.458765125274658203e+01,-5.014582061767578125e+01
-5.789651870727539062e+00,1.601239585876464844e+01,-4.955667877197265625e+01
-8.969749450683593750e+00,1.666166687011718750e+01,-4.901889419555664062e+01
-1.647148609161376953e+00,1.588168716430664062e+01,-4.775358581542968750e+01
-5.163967132568359375e+00,1.751937294006347656e+01,-4.707634353637695312e+01
-8.819597244262695312e+00,1.826581954956054688e+01,-4.645813369750976562e+01
-5.530018210411071777e-01,1.706950378417968750e+01,-4.504232025146484375e+01
-4.503736495971679688e+00,1.890935516357421875e+01,-4.428150939941406250e+01
-8.610514640808105469e+00,1.974787521362304688e+01,-4.358700942993164062e+01
5.448436737060546875e-01,1.814330291748046875e+01,-4.203019332885742188e+01
-3.813479185104370117e+00,2.017300033569335938e+01,-4.119088745117187500e+01
-8.343919754028320312e+00,2.109802818298339844e+01,-4.042473983764648438e+01
1.639092206954956055e+00,1.909546279907226562e+01,-3.873609542846679688e+01
-3.097572565078735352e+00,2.130133056640625000e+01,-3.782393264770507812e+01
-8.021342277526855469e+00,2.230659866333007812e+01,-3.699127578735351562e+01
2.722383499145507812e+00,1.992004394531250000e+01,-3.518318176269531250e+01
-2.361105442047119141e+00,2.228726005554199219e+01,-3.420424270629882812e+01
-7.645171642303466797e+00,2.336614418029785156e+01,-3.331064987182617188e+01
3.787451505661010742e+00,2.061148643493652344e+01,-3.139522361755371094e+01
-1.608681082725524902e+00,2.312439537048339844e+01,-3.035607147216796875e+01
-7.217942714691162109e+00,2.426972961425781250e+01,-2.940747833251953125e+01
4.827065467834472656e+00,2.116470336914062500e+01,-2.739684295654296875e+01
-8.455929160118103027e-01,2.380643463134765625e+01,-2.630443382263183594e+01
-6.742320060729980469e+00,2.501049232482910156e+01,-2.530722618103027344e+01
5.834541797637939453e+00,2.157656669616699219e+01,-2.321523284912109375e+01
-7.683215290307998657e-02,2.432939720153808594e+01,-2.207686042785644531e+01
-6.221609115600585938e+00,2.558403396606445312e+01,-2.103771018981933594e+01
6.802970886230468750e+00,2.184423828125000000e+01,-1.887867927551269531e+01
6.924155354499816895e-01,2.468985557556152344e+01,-1.770194625854492188e+01
-5.659369945526123047e+00,2.598679351806640625e+01,-1.662778472900390625e+01
7.725741386413574219e+00,2.196538162231445312e+01,-1.441546249389648438e+01
1.456992506980895996e+00,2.488472747802734375e+01,-1.320825958251953125e+01
-5.059161186218261719e+00,2.621520233154296875e+01,-1.210630512237548828e+01
8.596997261047363281e+00,2.193986511230468750e+01,-9.855889320373535156e+00
2.211999416351318359e+00,2.491321563720703125e+01,-8.626311302185058594e+00
-4.425140380859375000e+00,2.626843070983886719e+01,-7.503893852233886719e+00
9.410738945007324219e+00,2.176767921447753906e+01,-5.230494976043701172e+00
2.952044486999511719e+00,2.477539443969726562e+01,-3.986721515655517578e+00
-3.761568784713745117e+00,2.614622879028320312e+01,-2.851370573043823242e+00
1.016139507293701172e+01,2.144957542419433594e+01,-5.700279474258422852e-01
3.672417879104614258e+00,2.447143936157226562e+01,6.795818209648132324e-01
-3.072770833969116211e+00,2.584868621826171875e+01,1.820269227027893066e+00
1.084419155120849609e+01,2.098815536499023438e+01,4.094249725341796875e+00
4.368211746215820312e+00,2.400395584106445312e+01,5.341355323791503906e+00
-2.363428115844726562e+00,2.537830543518066406e+01,6.479739665985107422e+00
1.145445728302001953e+01,2.038644790649414062e+01,8.731142997741699219e+00
5.034770488739013672e+00,2.337595367431640625e+01,9.967401504516601562e+00
-1.638311624526977539e+00,2.473847961425781250e+01,1.109589481353759766e+01
1.198798561096191406e+01,1.964809608459472656e+01,1.330954074859619141e+01
5.667640686035156250e+00,2.259131813049316406e+01,1.452666664123535156e+01
-9.021984338760375977e-01,2.393275070190429688e+01,1.563769912719726562e+01
1.244135856628417969e+01,1.877840614318847656e+01,1.779901313781738281e+01
6.262617111206054688e+00,2.165584564208984375e+01,1.898888397216796875e+01
-1.600579470396041870e-01,2.296711158752441406e+01,2.007501792907714844e+01
1.281163883209228516e+01,1.778328704833984375e+01,2.216945838928222656e+01
6.815733909606933594e+00,2.057551574707031250e+01,2.332411384582519531e+01
5.831421017646789551e-01,2.184798812866210938e+01,2.437810516357421875e+01
-1.071380519866943359e+01,8.411821365356445312e+00,-5.565444946289062500e+01
-1.064757061004638672e+01,1.112571239471435547e+01,-5.444438552856445312e+01
-1.208214092254638672e+01,1.060925292968750000e+01,-5.427440261840820312e+01
-1.326459503173828125e+01,9.712371826171875000e+00,-5.417656707763671875e+01
-1.119209480285644531e+01,1.299650287628173828e+01,-5.283545684814453125e+01
-1.308988571166992188e+01,1.231328868865966797e+01,-5.261058425903320312e+01
-1.465414142608642578e+01,1.112679672241210938e+01,-5.248115921020507812e+01
-1.166182231903076172e+01,1.478042316436767578e+01,-5.087341308593750000e+01
-1.401014614105224609e+01,1.393501472473144531e+01,-5.059515762329101562e+01
-1.594577026367187500e+01,1.246687793731689453e+01,-5.043500518798828125e+01
-1.205365085601806641e+01,1.646562767028808594e+01,-4.857145309448242188e+01
-1.483675956726074219e+01,1.546361064910888672e+01,-4.824168395996093750e+01
-1.713087081909179688e+01,1.372367668151855469e+01,-4.805186080932617188e+01
-1.236462688446044922e+01,1.804037666320800781e+01,-4.594379806518554688e+01
-1.556401443481445312e+01,1.688864517211914062e+01,-4.556468963623046875e+01
-1.820109748840332031e+01,1.488844585418701172e+01,-4.534650039672851562e+01
-1.259305572509765625e+01,1.949465751647949219e+01,-4.300919342041015625e+01
-1.618717002868652344e+01,1.820071601867675781e+01,-4.258332443237304688e+01
-1.914967155456542969e+01,1.595369625091552734e+01,-4.233820724487304688e+01
-1.273730373382568359e+01,2.081868362426757812e+01,-3.978731536865234375e+01
-1.670220756530761719e+01,1.939121437072753906e+01,-3.931751632690429688e+01
-1.997039413452148438e+01,1.691244316101074219e+01,-3.904709625244140625e+01
-1.279617309570312500e+01,2.200307273864746094e+01,-3.629850387573242188e+01
-1.710527229309082031e+01,2.045171546936035156e+01,-3.578791427612304688e+01
-2.065710258483886719e+01,1.775769042968750000e+01,-3.549403762817382812e+01
-1.276938819885253906e+01,2.304035377502441406e+01,-3.256719207763671875e+01
-1.739404296875000000e+01,2.137557029724121094e+01,-3.201919555664062500e+01
-2.120575714111328125e+01,1.848425674438476562e+01,-3.170383262634277344e+01
-1.265750694274902344e+01,2.392383384704589844e+01,-2.861827087402343750e+01
-1.756655883789062500e+01,2.215655899047851562e+01,-2.803658866882324219e+01
-2.161282920837402344e+01,1.908741760253906250e+01,-2.770180892944335938e+01
-1.246064376831054688e+01,2.464684295654296875e+01,-2.447757720947265625e+01
-1.762125396728515625e+01,2.278895378112792969e+01,-2.386609077453613281e+01
-2.187500000000000000e+01,1.956260681152343750e+01,-2.351413154602050781e+01
-1.218049430847167969e+01,2.520516014099121094e+01,-2.017315101623535156e+01
-1.755828666687011719e+01,2.326915740966796875e+01,-1.953592491149902344e+01
-2.199090576171875000e+01,1.990699577331542969e+01,-1.916917800903320312e+01
-1.181899452209472656e+01,2.559512138366699219e+01,-1.573410606384277344e+01
-1.737798309326171875e+01,2.359385681152343750e+01,-1.507541084289550781e+01
-2.195993423461914062e+01,2.011841964721679688e+01,-1.469630908966064453e+01
-1.137818622589111328e+01,2.581341743469238281e+01,-1.118949604034423828e+01
-1.708107566833496094e+01,2.376028251647949219e+01,-1.051375579833984375e+01
-2.178171539306640625e+01,2.019494628906250000e+01,-1.012482357025146484e+01
-1.086148643493652344e+01,2.585914993286132812e+01,-6.570065975189208984e+00
-1.667016029357910156e+01,2.376807403564453125e+01,-5.881779193878173828e+00
-2.145792770385742188e+01,2.013651084899902344e+01,-5.485650062561035156e+00
-1.027207183837890625e+01,2.573222541809082031e+01,-1.906784415245056152e+00
-1.614777755737304688e+01,2.361696815490722656e+01,-1.210558772087097168e+00
-2.099077415466308594e+01,1.994353675842285156e+01,-8.098585605621337891e-01
-9.613902091979980469e+00,2.543277359008789062e+01,2.769302368164062500e+00
-1.551715087890625000e+01,2.330755043029785156e+01,3.468787193298339844e+00
-2.038290214538574219e+01,1.961686325073242188e+01,3.871370792388916016e+00
-8.891448020935058594e+00,2.496335983276367188e+01,7.426882743835449219e+00
-1.478287315368652344e+01,2.284240531921386719e+01,8.124967575073242188e+00
-8.109514236450195312e+00,2.432701110839843750e+01,1.203478240966796875e+01
-1.394974613189697266e+01,2.222457313537597656e+01,1.272680854797363281e+01
-7.273287296295166016e+00,2.352766036987304688e+01,1.656206321716308594e+01
-1.302314949035644531e+01,2.145778083801269531e+01,1.724338340759277344e+01
-1.776241493225097656e+01,1.786301994323730469e+01,1.763549995422363281e+01
-6.388462066650390625e+00,2.257121658325195312e+01,2.097869110107421875e+01
-1.200946521759033203e+01,2.054755020141601562e+01,2.164472770690917969e+01
-1.664267539978027344e+01,1.703340911865234375e+01,2.202808570861816406e+01
-5.460924625396728516e+00,2.146379470825195312e+01,2.525503158569335938e+01
-1.091561031341552734e+01,1.950007438659667969e+01,2.590136718750000000e+01
-1.541166305541992188e+01,1.608990859985351562e+01,2.627337074279785156e+01
-1.191840457916259766e+01,7.146735191345214844e+00,-5.558630752563476562e+01
-1.220723056793212891e+01,5.319622039794921875e+00,-5.570668792724609375e+01
-1.410470104217529297e+01,8.485134124755859375e+00,-5.415999603271484375e+01
-1.455658721923828125e+01,7.020411491394042969e+00,-5.422327041625976562e+01
-1.458964157104492188e+01,5.417337894439697266e+00,-5.436211776733398438e+01
-1.576552486419677734e+01,9.503296852111816406e+00,-5.245923233032226562e+01
-1.636331558227539062e+01,7.565618515014648438e+00,-5.254294204711914062e+01
-1.640705490112304688e+01,5.444934844970703125e+00,-5.272661590576171875e+01
-1.732096862792968750e+01,1.045794582366943359e+01,-5.040787887573242188e+01
-1.806067466735839844e+01,8.060265541076660156e+00,-5.051145935058593750e+01
-1.811483955383300781e+01,5.436143875122070312e+00,-5.073873138427734375e+01
-1.876065635681152344e+01,1.134268379211425781e+01,-4.801972961425781250e+01
-1.963739967346191406e+01,8.501076698303222656e+00,-4.814247512817382812e+01
-1.970151519775390625e+01,5.391025543212890625e+00,-4.841184234619140625e+01
-2.007467651367187500e+01,1.215148735046386719e+01,-4.530954360961914062e+01
-2.108239936828613281e+01,8.884857177734375000e+00,-4.545067214965820312e+01
-2.115619277954101562e+01,5.309765815734863281e+00,-4.576030349731445312e+01
-2.125444793701171875e+01,1.287899494171142578e+01,-4.229668807983398438e+01
-2.238661003112792969e+01,9.209338188171386719e+00,-4.245521163940429688e+01
-2.246946144104003906e+01,5.193027019500732422e+00,-4.280306625366210938e+01
-2.229224777221679688e+01,1.352048206329345703e+01,-3.900131225585937500e+01
-2.354124832153320312e+01,9.472240447998046875e+00,-3.917618560791015625e+01
-2.363265228271484375e+01,5.041602134704589844e+00,-3.955992126464843750e+01
-2.318058776855468750e+01,1.407133769989013672e+01,-3.544425964355468750e+01
-2.453798484802246094e+01,9.671668052673339844e+00,-3.563431930541992188e+01
-2.463725280761718750e+01,4.856351375579833984e+00,-3.605138397216796875e+01
-2.391405105590820312e+01,1.452817058563232422e+01,-3.165038681030273438e+01
-2.537067031860351562e+01,9.806320190429687500e+00,-3.185439109802246094e+01
-2.547725677490234375e+01,4.638653755187988281e+00,-3.230196762084960938e+01
-2.448768806457519531e+01,1.488789844512939453e+01,-2.764509010314941406e+01
-2.603399848937988281e+01,9.875667572021484375e+00,-2.786161994934082031e+01
-2.614719772338867188e+01,4.389976501464843750e+00,-2.833673286437988281e+01
-2.489710426330566406e+01,1.514775943756103516e+01,-2.345452690124511719e+01
-2.652270317077636719e+01,9.878682136535644531e+00,-2.368214607238769531e+01
-2.664173507690429688e+01,4.111866474151611328e+00,-2.418160247802734375e+01
-2.514023590087890625e+01,1.530649471282958984e+01,-1.910704612731933594e+01
-2.683417510986328125e+01,9.815672874450683594e+00,-1.934425544738769531e+01
-2.695813751220703125e+01,3.806259155273437500e+00,-1.986473464965820312e+01
-2.521537017822265625e+01,1.536292934417724609e+01,-1.463208389282226562e+01
-2.696641349792480469e+01,9.687102317810058594e+00,-1.487728118896484375e+01
-2.709458732604980469e+01,3.475245475769042969e+00,-1.541528797149658203e+01
-2.512135124206542969e+01,1.531627941131591797e+01,-1.005895233154296875e+01
-2.691778755187988281e+01,9.493523597717285156e+00,-1.031048774719238281e+01
-2.704925727844238281e+01,3.120915412902832031e+00,-1.086242008209228516e+01
-2.485960578918457031e+01,1.516740894317626953e+01,-5.418537139892578125e+00
-2.668922424316406250e+01,9.236653327941894531e+00,-5.674759387969970703e+00
-2.682316780090332031e+01,2.745727300643920898e+00,-6.236933708190917969e+00
-2.443166923522949219e+01,1.491711616516113281e+01,-7.419747710227966309e-01
-2.628245162963867188e+01,8.917915344238281250e+00,-1.001146316528320312e+00
-2.641794586181640625e+01,2.352204084396362305e+00,-1.569796919822692871e+00
-2.383995819091796875e+01,1.456682777404785156e+01,3.939572572708129883e+00
-2.569946670532226562e+01,8.539503097534179688e+00,3.679193496704101562e+00
-2.583555984497070312e+01,1.942905545234680176e+00,3.107861995697021484e+00
-2.308896446228027344e+01,1.411923789978027344e+01,8.594807624816894531e+00
-2.494473648071289062e+01,8.103986740112304688e+00,8.334947586059570312e+00
-2.508042526245117188e+01,1.520617365837097168e+00,7.764742374420166016e+00
-2.402319335937500000e+01,7.614255905151367188e+00,1.293495082855224609e+01
-2.415783691406250000e+01,1.088179469108581543e+00,1.236972713470458984e+01
-2.112961959838867188e+01,1.294425964355468750e+01,1.770193099975585938e+01
-2.294068717956542969e+01,7.073551177978515625e+00,1.744829940795898438e+01
-2.307323265075683594e+01,6.484380364418029785e-01,1.689181900024414062e+01
-1.993435478210449219e+01,1.222472667694091797e+01,2.209300422668457031e+01
-2.170500946044921875e+01,6.485578060150146484e+00,2.184508132934570312e+01
-2.183446502685546875e+01,2.043646126985549927e-01,2.130104637145996094e+01
-1.860595130920410156e+01,1.142357730865478516e+01,2.633637619018554688e+01
-2.032414627075195312e+01,5.854244709014892578e+00,2.609577941894531250e+01
-2.044978523254394531e+01,-2.410686463117599487e-01,2.556784629821777344e+01
-1.149431228637695312e+01,3.420027732849121094e+00,-5.598462295532226562e+01
-1.418815517425537109e+01,3.782822847366333008e+00,-5.456930541992187500e+01
-1.339263248443603516e+01,2.227843999862670898e+00,-5.482878112792968750e+01
-1.225694179534912109e+01,8.576476573944091797e-01,-5.512296676635742188e+01
-1.587592220306396484e+01,3.282656669616699219e+00,-5.300070953369140625e+01
-1.482353496551513672e+01,1.225579142570495605e+00,-5.334396362304687500e+01
-1.332112598419189453e+01,-5.870425701141357422e-01,-5.373314285278320312e+01
-1.745757484436035156e+01,2.760547161102294922e+00,-5.107789611816406250e+01
-1.615535163879394531e+01,2.151224464178085327e-01,-5.150263977050781250e+01
-1.429629611968994141e+01,-2.027824401855468750e+00,-5.198421096801757812e+01
-1.892262077331542969e+01,2.219978809356689453e+00,-4.881380462646484375e+01
-1.737920951843261719e+01,-7.967385649681091309e-01,-4.931719970703125000e+01
-1.517595863342285156e+01,-3.455071687698364258e+00,-4.988793945312500000e+01
-2.026074028015136719e+01,1.664543509483337402e+00,-4.622238540649414062e+01
-1.848663711547851562e+01,-1.803365468978881836e+00,-4.680104827880859375e+01
-1.595385360717773438e+01,-4.859147071838378906e+00,-4.745714187622070312e+01
-2.146354675292968750e+01,1.097938656806945801e+00,-4.332216644287109375e+01
-1.947044944763183594e+01,-2.797847509384155273e+00,-4.397224426269531250e+01
-1.662512207031250000e+01,-6.230713844299316406e+00,-4.470929718017578125e+01
-2.252296066284179688e+01,5.240575671195983887e-01,-4.013257217407226562e+01
-2.032420539855957031e+01,-3.773646116256713867e+00,-4.084972000122070312e+01
-1.718539047241210938e+01,-7.560714244842529297e+00,-4.166280746459960938e+01
-2.343128776550292969e+01,-5.340585857629776001e-02,-3.667374420166015625e+01
-2.104168891906738281e+01,-4.724190235137939453e+00,-3.745314407348632812e+01
-1.763033485412597656e+01,-8.839958190917968750e+00,-3.833681869506835938e+01
-2.418299293518066406e+01,-6.303722262382507324e-01,-3.296987152099609375e+01
-2.161858749389648438e+01,-5.643164157867431641e+00,-3.380631637573242188e+01
-1.795745658874511719e+01,-1.006011104583740234e+01,-3.475468063354492188e+01
-2.477322769165039062e+01,-1.203316569328308105e+00,-2.904575157165527344e+01
-2.205100631713867188e+01,-6.524399757385253906e+00,-2.993365478515625000e+01
-1.816467666625976562e+01,-1.121312427520751953e+01,-3.094035720825195312e+01
-2.519732284545898438e+01,-1.768072485923767090e+00,-2.492696189880371094e+01
-2.233555030822753906e+01,-7.361833572387695312e+00,-2.586037063598632812e+01
-1.825011825561523438e+01,-1.229094791412353516e+01,-2.691866683959960938e+01
-2.545303726196289062e+01,-2.321026802062988281e+00,-2.064143753051757812e+01
-2.247090530395507812e+01,-8.150186538696289062e+00,-2.161411666870117188e+01
-1.821352958679199219e+01,-1.328659915924072266e+01,-2.271693801879882812e+01
-2.553874969482421875e+01,-2.858458518981933594e+00,-1.621816253662109375e+01
-2.245610618591308594e+01,-8.884027481079101562e+00,-1.722361946105957031e+01
-1.805529594421386719e+01,-1.419348621368408203e+01,-1.836359596252441406e+01
-2.545318031311035156e+01,-3.376689672470092773e+00,-1.168606758117675781e+01
-2.229067230224609375e+01,-9.558250427246093750e+00,-1.271756362915039062e+01
-1.777599525451660156e+01,-1.500521659851074219e+01,-1.388704681396484375e+01
-2.519742202758789062e+01,-3.872518062591552734e+00,-7.075879096984863281e+00
-2.197639846801757812e+01,-1.016871547698974609e+01,-8.126483917236328125e+00
-1.737789535522460938e+01,-1.571667098999023438e+01,-9.317668914794921875e+00
-2.477346229553222656e+01,-4.342297077178955078e+00,-2.418409109115600586e+00
-2.151521492004394531e+01,-1.071116447448730469e+01,-3.481147289276123047e+00
-1.686368942260742188e+01,-1.632311058044433594e+01,-4.686069011688232422e+00
-2.418337821960449219e+01,-4.783082485198974609e+00,2.255264043807983398e+00
-2.090980720520019531e+01,-1.118181037902832031e+01,1.187536001205444336e+00
-1.623643302917480469e+01,-1.682012557983398438e+01,-2.304614521563053131e-02
-2.343169021606445312e+01,-5.191865921020507812e+00,6.913876056671142578e+00
-2.016468811035156250e+01,-1.157777690887451172e+01,5.848288059234619141e+00
-1.550064373016357422e+01,-1.720470809936523438e+01,4.640134334564208984e+00
-2.252331352233886719e+01,-5.565907001495361328e+00,1.152624320983886719e+01
-1.928478813171386719e+01,-1.189631175994873047e+01,1.046992969512939453e+01
-1.466135787963867188e+01,-1.747440338134765625e+01,9.272282600402832031e+00
-2.146401214599609375e+01,-5.902699947357177734e+00,1.606138610839843750e+01
-1.827562522888183594e+01,-1.213514518737792969e+01,1.502142333984375000e+01
-1.372372150421142578e+01,-1.762689590454101562e+01,1.384230804443359375e+01
-2.026140785217285156e+01,-6.200033187866210938e+00,2.048923301696777344e+01
-1.714429664611816406e+01,-1.229283714294433594e+01,1.947254562377929688e+01
-1.269443511962890625e+01,-1.766165924072265625e+01,1.831984710693359375e+01
-1.892326927185058594e+01,-6.455923557281494141e+00,2.478005790710449219e+01
-1.589846038818359375e+01,-1.236843681335449219e+01,2.379346466064453125e+01
-1.158027172088623047e+01,-1.757833290100097656e+01,2.267487907409667969e+01
-9.979391098022460938e+00,1.958170294761657715e+00,-5.634421920776367188e+01
-8.063955307006835938e+00,1.321475028991699219e+00,-5.669017791748046875e+01
-1.084903240203857422e+01,-2.266602516174316406e-01,-5.543255615234375000e+01
-9.272121429443359375e+00,-9.610158205032348633e-01,-5.573622512817382812e+01
-7.632941246032714844e+00,-1.295687675476074219e+00,-5.601342773437500000e+01
-1.145861339569091797e+01,-2.021478652954101562e+00,-5.414269638061523438e+01
-9.372522354125976562e+00,-2.992947101593017578e+00,-5.454442214965820312e+01
-7.204071521759033203e+00,-3.435693264007568359e+00,-5.491112899780273438e+01
-1.199161529541015625e+01,-3.802769660949707031e+00,-5.249098587036132812e+01
-9.410289764404296875e+00,-5.004863262176513672e+00,-5.298808288574218750e+01
-6.727053642272949219e+00,-5.552758216857910156e+00,-5.344185256958007812e+01
-1.244446277618408203e+01,-5.558634281158447266e+00,-5.048855972290039062e+01
-9.385193824768066406e+00,-6.983377933502197266e+00,-5.107770538330078125e+01
-6.205096721649169922e+00,-7.632649421691894531e+00,-5.161548995971679688e+01
-1.281396579742431641e+01,-7.277339458465576172e+00,-4.814757156372070312e+01
-9.297146797180175781e+00,-8.915024757385253906e+00,-4.882481384277343750e+01
-5.641517162322998047e+00,-9.661472320556640625e+00,-4.944302749633789062e+01
-1.309777069091796875e+01,-8.947308540344238281e+00,-4.548492813110351562e+01
-9.147035598754882812e+00,-1.078715896606445312e+01,-4.624573898315429688e+01
-5.040256977081298828e+00,-1.162567996978759766e+01,-4.694023895263671875e+01
-1.329409217834472656e+01,-1.055751323699951172e+01,-4.251845932006835938e+01
-8.935770034790039062e+00,-1.258720970153808594e+01,-4.335776519775390625e+01
-4.405329227447509766e+00,-1.351223945617675781e+01,-4.412391662597656250e+01
-1.340128612518310547e+01,-1.209697055816650391e+01,-3.926674652099609375e+01
-8.664621353149414062e+00,-1.430283641815185547e+01,-4.017890930175781250e+01
-3.740851640701293945e+00,-1.530810546875000000e+01,-4.101156997680664062e+01
-1.341893291473388672e+01,-1.355560779571533203e+01,-3.575267028808593750e+01
-8.335443496704101562e+00,-1.592282485961914062e+01,-3.673160934448242188e+01
-3.051377296447753906e+00,-1.700170707702636719e+01,-3.762520217895507812e+01
-1.334689712524414062e+01,-1.492362689971923828e+01,-3.199975013732910156e+01
-7.950765132904052734e+00,-1.743653488159179688e+01,-3.303890228271484375e+01
-2.341503381729125977e+00,-1.858186912536621094e+01,-3.398749542236328125e+01
-1.318533802032470703e+01,-1.619153976440429688e+01,-2.803235816955566406e+01
-7.512679576873779297e+00,-1.883327102661132812e+01,-2.912476921081542969e+01
-1.615952610969543457e+00,-2.003733062744140625e+01,-3.012197685241699219e+01
-1.293573951721191406e+01,-1.735136222839355469e+01,-2.387747955322265625e+01
-7.024365901947021484e+00,-2.010419273376464844e+01,-2.501585388183593750e+01
-8.795889616012573242e-01,-2.135882949829101562e+01,-2.605500411987304688e+01
-1.259969902038574219e+01,-1.839519119262695312e+01,-1.956323623657226562e+01
-6.489143371582031250e+00,-2.124080848693847656e+01,-2.073996925354003906e+01
-1.373580247163772583e-01,-2.253774642944335938e+01,-2.181413078308105469e+01
-1.217910861968994141e+01,-1.931563186645507812e+01,-1.511774730682373047e+01
-5.910359859466552734e+00,-2.223497772216796875e+01,-1.632494926452636719e+01
6.057936549186706543e-01,-2.356545448303222656e+01,-1.742690467834472656e+01
-1.167723560333251953e+01,-2.010712623596191406e+01,-1.057119846343994141e+01
-5.292237758636474609e+00,-2.308047676086425781e+01,-1.180077552795410156e+01
1.344901919364929199e+00,-2.443569183349609375e+01,-1.292319393157958984e+01
-1.109727764129638672e+01,-2.076418876647949219e+01,-5.954054832458496094e+00
-4.638583660125732422e+00,-2.377190589904785156e+01,-7.197828769683837891e+00
2.075029611587524414e+00,-2.514274024963378906e+01,-8.333179473876953125e+00
-1.044292640686035156e+01,-2.128206443786621094e+01,-1.296989202499389648e+00
-3.953948736190795898e+00,-2.430392837524414062e+01,-2.546599149703979492e+00
2.791239738464355469e+00,-2.568117523193359375e+01,-3.687286376953125000e+00
-9.718831062316894531e+00,-2.165774345397949219e+01,3.368753433227539062e+00
-3.242851734161376953e+00,-2.467354393005371094e+01,2.121647834777832031e+00
3.488788366317749023e+00,-2.604789352416992188e+01,9.832631945610046387e-01
-8.929735183715820312e+00,-2.188865470886230469e+01,8.011949539184570312e+00
-2.510048389434814453e+00,-2.487816238403320312e+01,6.775691032409667969e+00
4.163033485412597656e+00,-2.624068641662597656e+01,5.647197723388671875e+00
-8.080814361572265625e+00,-2.197285842895507812e+01,1.260147953033447266e+01
-1.760469675064086914e+00,-2.491608047485351562e+01,1.138435363769531250e+01
4.809369564056396484e+00,-2.625751304626464844e+01,1.027332115173339844e+01
-7.177844524383544922e+00,-2.191019248962402344e+01,1.710680770874023438e+01
-9.991036057472229004e-01,-2.478763008117675781e+01,1.591693592071533203e+01
5.423571586608886719e+00,-2.609889793395996094e+01,1.483080101013183594e+01
-6.226980209350585938e+00,-2.170115089416503906e+01,2.149774360656738281e+01
-2.310751378536224365e-01,-2.449338150024414062e+01,2.034308815002441406e+01
6.001516342163085938e+00,-2.576585388183593750e+01,1.928909683227539062e+01
-6.262827873229980469e+00,1.689257621765136719e+00,-5.692877578735351562e+01
-6.043345928192138672e+00,-1.194634318351745605e+00,-5.624406051635742188e+01
-4.608775615692138672e+00,-6.781747341156005859e-01,-5.641404342651367188e+01
-5.101219177246093750e+00,-3.301997661590576172e+00,-5.521622848510742188e+01
-3.203428506851196289e+00,-2.618783712387084961e+00,-5.544110107421875000e+01
-4.124997615814208984e+00,-5.387281417846679688e+00,-5.381937408447265625e+01
-1.776674270629882812e+00,-4.541873455047607422e+00,-5.409762954711914062e+01
-3.121194362640380859e+00,-7.436610221862792969e+00,-5.206292724609375000e+01
-3.380860388278961182e-01,-6.434593200683593750e+00,-5.239269638061523438e+01
-2.096487283706665039e+00,-9.436029434204101562e+00,-4.995735931396484375e+01
1.102900385856628418e+00,-8.284296989440917969e+00,-5.033646774291992188e+01
-1.057716608047485352e+00,-1.137246322631835938e+01,-4.751805496215820312e+01
2.536397933959960938e+00,-1.007852077484130859e+01,-4.794392776489257812e+01
-1.194481924176216125e-02,-1.323289394378662109e+01,-4.476133728027343750e+01
3.952958583831787109e+00,-1.180542469024658203e+01,-4.523114013671875000e+01
1.033979296684265137e+00,-1.500457954406738281e+01,-4.170434188842773438e+01
5.343078136444091797e+00,-1.345322132110595703e+01,-4.221492767333984375e+01
2.072838783264160156e+00,-1.667591857910156250e+01,-3.836865997314453125e+01
6.697493076324462891e+00,-1.501113510131835938e+01,-3.891665649414062500e+01
3.098060607910156250e+00,-1.823597335815429688e+01,-3.477670288085937500e+01
8.007113456726074219e+00,-1.646869850158691406e+01,-3.535838699340820312e+01
4.102370738983154297e+00,-1.967367935180664062e+01,-3.095162582397460938e+01
9.262980461120605469e+00,-1.781579017639160156e+01,-3.156311225891113281e+01
5.079296112060546875e+00,-2.097995567321777344e+01,-2.691956138610839844e+01
1.045708847045898438e+01,-1.904395294189453125e+01,-2.755678939819335938e+01
6.022266864776611328e+00,-2.214607429504394531e+01,-2.270780944824218750e+01
1.158125495910644531e+01,-2.014480972290039062e+01,-2.336650466918945312e+01
6.924818992614746094e+00,-2.316366958618164062e+01,-1.834371376037597656e+01
1.262770843505859375e+01,-2.111053276062011719e+01,-1.901945304870605469e+01
7.781248092651367188e+00,-2.402641105651855469e+01,-1.385702133178710938e+01
1.358992099761962891e+01,-2.193533515930175781e+01,-1.454530811309814453e+01
8.585532188415527344e+00,-2.472873687744140625e+01,-9.277765274047851562e+00
1.446123886108398438e+01,-2.261347961425781250e+01,-9.973991394042968750e+00
9.332370758056640625e+00,-2.526526260375976562e+01,-4.636319637298583984e+00
1.523561954498291016e+01,-2.314003944396972656e+01,-5.335804462432861328e+00
1.001680755615234375e+01,-2.563294792175292969e+01,3.612029552459716797e-02
1.590823268890380859e+01,-2.351199340820312500e+01,-6.619644165039062500e-01
1.063423633575439453e+01,-2.582921791076660156e+01,4.708310127258300781e+00
1.647446823120117188e+01,-2.372677993774414062e+01,4.016283988952636719e+00
1.118045806884765625e+01,-2.585242271423339844e+01,9.348958015441894531e+00
1.693032073974609375e+01,-2.378254508972167969e+01,8.667636871337890625e+00
1.165197563171386719e+01,-2.570300292968750000e+01,1.392712879180908203e+01
1.727297782897949219e+01,-2.367933464050292969e+01,1.326109218597412109e+01
1.204558277130126953e+01,-2.538166046142578125e+01,1.841217041015625000e+01
1.750026893615722656e+01,-2.341794013977050781e+01,1.776583671569824219e+01
-9.054545402526855469e+00,5.387444972991943359e+00,-6.004664611816406250e+01
-4.388702392578125000e+00,2.538000822067260742e+00,-6.017868804931640625e+01
-4.006006240844726562e+00,4.958913803100585938e+00,-6.001918792724609375e+01
-1.152245521545410156e+00,5.625642538070678711e-01,-5.981614685058593750e+01
-2.265368700027465820e+00,-1.063527941703796387e+00,-5.979419326782226562e+01
-5.534874796867370605e-01,2.503302097320556641e+00,-5.973231124877929688e+01
-5.096764564514160156e-01,4.627353668212890625e+00,-5.954834365844726562e+01
1.520925641059875488e+00,-1.067685961723327637e+00,-5.893529510498046875e+01
4.840330407023429871e-02,-3.218847751617431641e+00,-5.890625381469726562e+01
2.313023805618286133e+00,1.499691605567932129e+00,-5.882439041137695312e+01
2.371044635772705078e+00,4.309568881988525391e+00,-5.858103561401367188e+01
4.184012413024902344e+00,-2.690867900848388672e+00,-5.766059112548828125e+01
2.361877679824829102e+00,-5.352680683135986328e+00,-5.762464904785156250e+01
5.164103507995605469e+00,4.860586524009704590e-01,-5.752334213256835938e+01
5.235855579376220703e+00,3.962988853454589844e+00,-5.722220993041992188e+01
6.819143295288085938e+00,-4.296071052551269531e+00,-5.600060653686523438e+01
4.659577846527099609e+00,-7.450755119323730469e+00,-5.595800399780273438e+01
7.980683326721191406e+00,-5.308843851089477539e-01,-5.583794021606445312e+01
8.065826416015625000e+00,3.589917898178100586e+00,-5.548106002807617188e+01
9.408452033996582031e+00,-5.872376918792724609e+00,-5.396515274047851562e+01
6.925999164581298828e+00,-9.498839378356933594e+00,-5.391618728637695312e+01
1.074382305145263672e+01,-1.544221282005310059e+00,-5.377818679809570312e+01
1.084151268005371094e+01,3.192792892456054688e+00,-5.336790847778320312e+01
1.193501853942871094e+01,-7.409549713134765625e+00,-5.156901550292968750e+01
9.146178245544433594e+00,-1.148348140716552734e+01,-5.151399993896484375e+01
1.343512058258056641e+01,-2.547269344329833984e+00,-5.135897064208984375e+01
1.354483509063720703e+01,2.774320840835571289e+00,-5.089805603027343750e+01
1.438179016113281250e+01,-8.897178649902343750e+00,-4.882830429077148438e+01
1.130528259277343750e+01,-1.339143085479736328e+01,-4.876762008666992188e+01
1.603663444519042969e+01,-3.533200263977050781e+00,-4.859658050537109375e+01
1.615767478942871094e+01,2.337309360504150391e+00,-4.808812332153320312e+01
1.673211288452148438e+01,-1.032512855529785156e+01,-4.576034545898437500e+01
1.338847637176513672e+01,-1.520949459075927734e+01,-4.569438552856445312e+01
1.853061676025390625e+01,-4.495548725128173828e+00,-4.550851058959960938e+01
1.866218185424804688e+01,1.884637713432312012e+00,-4.495591354370117188e+01
1.897059249877929688e+01,-1.168405437469482422e+01,-4.238655471801757812e+01
1.538226890563964844e+01,-1.692598342895507812e+01,-4.231577301025390625e+01
2.090072631835937500e+01,-5.427765846252441406e+00,-4.211627960205078125e+01
2.104202079772949219e+01,1.419366717338562012e+00,-4.152325439453125000e+01
2.108234786987304688e+01,-1.296494579315185547e+01,-3.872951889038085938e+01
1.727325248718261719e+01,-1.852934646606445312e+01,-3.865438079833984375e+01
2.313124275207519531e+01,-6.323733329772949219e+00,-3.844261932373046875e+01
2.328115463256835938e+01,9.446154832839965820e-01,-3.781310272216796875e+01
2.305279159545898438e+01,-1.415894794464111328e+01,-3.481280517578125000e+01
1.904854583740234375e+01,-2.000859451293945312e+01,-3.473383331298828125e+01
2.520676422119140625e+01,-7.177435874938964844e+00,-3.451121902465820312e+01
2.536428833007812500e+01,4.635250568389892578e-01,-3.384941864013671875e+01
2.486923789978027344e+01,-1.525840568542480469e+01,-3.066357612609863281e+01
2.069646072387695312e+01,-2.135405731201171875e+01,-3.058126258850097656e+01
2.711368179321289062e+01,-7.983035087585449219e+00,-3.034926605224609375e+01
2.727788734436035156e+01,-2.065250091254711151e-02,-2.965963363647460938e+01
2.651940917968750000e+01,-1.625571060180664062e+01,-2.630931663513183594e+01
2.220607948303222656e+01,-2.255682182312011719e+01,-2.622424316406250000e+01
2.883953666687011719e+01,-8.735418319702148438e+00,-2.598444366455078125e+01
2.900927162170410156e+01,-5.047046542167663574e-01,-2.527157020568847656e+01
2.799181747436523438e+01,-1.714412307739257812e+01,-2.177876663208007812e+01
2.356675720214843750e+01,-2.360830307006835938e+01,-2.169147682189941406e+01
3.037197303771972656e+01,-9.429109573364257812e+00,-2.144547653198242188e+01
3.054618453979492188e+01,-9.853686094284057617e-01,-2.071416473388671875e+01
2.927719688415527344e+01,-1.791807746887207031e+01,-1.710254669189453125e+01
2.477001762390136719e+01,-2.450207901000976562e+01,-1.701362419128417969e+01
3.170152664184570312e+01,-1.005990505218505859e+01,-1.676307296752929688e+01
3.187897872924804688e+01,-1.459459543228149414e+00,-1.601819038391113281e+01
3.036695480346679688e+01,-1.857224464416503906e+01,-1.231221771240234375e+01
2.580777168273925781e+01,-2.523214721679687500e+01,-1.222226333618164062e+01
3.281918334960937500e+01,-1.062342071533203125e+01,-1.196881675720214844e+01
3.299864196777343750e+01,-1.923775315284729004e+00,-1.121533775329589844e+01
3.125304794311523438e+01,-1.910178947448730469e+01,-7.439259052276611328e+00
2.667252922058105469e+01,-2.579307365417480469e+01,-7.348902702331542969e+00
3.371688842773437500e+01,-1.111566925048828125e+01,-7.094263076782226562e+00
3.389721298217773438e+01,-2.375208139419555664e+00,-6.337251663208007812e+00
3.193036270141601562e+01,-1.950373649597167969e+01,-2.516599178314208984e+00
2.735899925231933594e+01,-2.618159103393554688e+01,-2.426418304443359375e+00
3.438922882080078125e+01,-1.153364944458007812e+01,-2.172291755676269531e+00
3.456912612915039062e+01,-2.810760736465454102e+00,-1.416792511940002441e+00
3.239429855346679688e+01,-1.977544975280761719e+01,2.422876119613647461e+00
2.786271858215332031e+01,-2.639522361755371094e+01,2.512268781661987305e+00
3.483171463012695312e+01,-1.187460136413574219e+01,2.764205694198608398e+00
3.501018524169921875e+01,-3.227540731430053711e+00,3.513116836547851562e+00
3.264113235473632812e+01,-1.991451644897460938e+01,7.346096038818359375e+00
2.817956924438476562e+01,-2.643182754516601562e+01,7.434123516082763672e+00
3.504083251953125000e+01,-1.213591194152832031e+01,7.682144641876220703e+00
3.521631622314453125e+01,-3.622667789459228516e+00,8.419500350952148438e+00
3.266974639892578125e+01,-1.992048645019531250e+01,1.222029113769531250e+01
2.830818748474121094e+01,-2.629187393188476562e+01,1.230633163452148438e+01
3.501574325561523438e+01,-1.231616878509521484e+01,1.254880046844482422e+01
3.518743896484375000e+01,-3.993612289428710938e+00,1.326961898803710938e+01
3.248009109497070312e+01,-1.979335975646972656e+01,1.701273345947265625e+01
2.824758529663085938e+01,-2.597617912292480469e+01,1.709623146057128906e+01
3.475667953491210938e+01,-1.241406440734863281e+01,1.733152008056640625e+01
3.492321014404296875e+01,-4.337848186492919922e+00,1.803101539611816406e+01
-4.950623035430908203e+00,7.475864410400390625e+00,-5.965092468261718750e+01
-1.041655659675598145e+00,6.793066024780273438e+00,-5.927381515502929688e+01
-2.095727920532226562e+00,8.853395462036132812e+00,-5.893001556396484375e+01
-3.600500106811523438e+00,1.066890525817871094e+01,-5.854021835327148438e+01
1.667232632637023926e+00,7.174570083618164062e+00,-5.821785354614257812e+01
2.728041708469390869e-01,9.900154113769531250e+00,-5.776304244995117188e+01
-1.717831373214721680e+00,1.230189228057861328e+01,-5.724738693237304688e+01
4.365004539489746094e+00,7.508120536804199219e+00,-5.677281951904296875e+01
2.639578819274902344e+00,1.088080596923828125e+01,-5.621003723144531250e+01
1.763387471437454224e-01,1.385268688201904297e+01,-5.557196044921875000e+01
7.033602714538574219e+00,7.791566848754882812e+00,-5.494843292236328125e+01
4.988717555999755859e+00,1.178875446319580078e+01,-5.428144836425781250e+01
2.069335937500000000e+00,1.531092643737792969e+01,-5.352521514892578125e+01
9.655121803283691406e+00,8.022717475891113281e+00,-5.275566482543945312e+01
7.304325103759765625e+00,1.261758613586425781e+01,-5.198892974853515625e+01
3.948428869247436523e+00,1.666648292541503906e+01,-5.111961746215820312e+01
1.221206665039062500e+01,8.200280189514160156e+00,-5.021026229858398438e+01
9.571229934692382812e+00,1.336217975616455078e+01,-4.934891510009765625e+01
5.801170825958251953e+00,1.791068077087402344e+01,-4.837232589721679688e+01
1.468742370605468750e+01,8.322957992553710938e+00,-4.732938385009765625e+01
1.177414321899414062e+01,1.401746273040771484e+01,-4.637916946411132812e+01
7.615182399749755859e+00,1.903523826599121094e+01,-4.530183029174804688e+01
1.706426811218261719e+01,8.389961242675781250e+00,-4.413129806518554688e+01
1.389809226989746094e+01,1.457876014709472656e+01,-4.309859848022460938e+01
9.378041267395019531e+00,2.003210449218750000e+01,-4.192773056030273438e+01
1.932705879211425781e+01,8.400807380676269531e+00,-4.063827133178710938e+01
1.592914390563964844e+01,1.504260730743408203e+01,-3.952998352050781250e+01
1.107828712463378906e+01,2.089515495300292969e+01,-3.827341842651367188e+01
2.146076583862304688e+01,8.355527877807617188e+00,-3.687368774414062500e+01
1.785378456115722656e+01,1.540597248077392578e+01,-3.569721221923828125e+01
1.270448684692382812e+01,2.161855888366699219e+01,-3.436333847045898438e+01
2.345065307617187500e+01,8.254343986511230469e+00,-3.286185836791992188e+01
1.965875434875488281e+01,1.566607189178466797e+01,-3.162508201599121094e+01
1.424560832977294922e+01,2.219711685180664062e+01,-3.022285270690917969e+01
2.528369903564453125e+01,8.097898483276367188e+00,-2.863052177429199219e+01
2.133238983154296875e+01,1.582156467437744141e+01,-2.734172058105468750e+01
1.569145584106445312e+01,2.262728691101074219e+01,-2.588049888610839844e+01
2.694788360595703125e+01,7.887441158294677734e+00,-2.420777893066406250e+01
2.286342620849609375e+01,1.587113761901855469e+01,-2.287557029724121094e+01
1.703245925903320312e+01,2.290624237060546875e+01,-2.136511230468750000e+01
2.843135833740234375e+01,7.623996734619140625e+00,-1.962282562255859375e+01
2.424119186401367188e+01,1.581440448760986328e+01,-1.825613021850585938e+01
1.825921440124511719e+01,2.303158760070800781e+01,-1.670656394958496094e+01
2.972489547729492188e+01,7.309686183929443359e+00,-1.490659618377685547e+01
2.545697021484375000e+01,1.565207767486572266e+01,-1.351453971862792969e+01
1.936401176452636719e+01,2.300305366516113281e+01,-1.193623447418212891e+01
3.081975364685058594e+01,6.946510791778564453e+00,-1.009092807769775391e+01
2.650266265869140625e+01,1.538512802124023438e+01,-8.682824134826660156e+00
2.033942031860351562e+01,2.282085418701171875e+01,-7.086317062377929688e+00
3.170807838439941406e+01,6.536691665649414062e+00,-5.207563877105712891e+00
2.737062263488769531e+01,1.501492404937744141e+01,-3.792835235595703125e+00
2.117848968505859375e+01,2.248566436767578125e+01,-2.188829660415649414e+00
3.238445663452148438e+01,6.083216667175292969e+00,-2.893859446048736572e-01
2.805574035644531250e+01,1.454442119598388672e+01,1.122497081756591797e+00
2.187599563598632812e+01,2.200017356872558594e+01,2.723289966583251953e+00
3.284437179565429688e+01,5.589141845703125000e+00,4.630745410919189453e+00
2.855334854125976562e+01,1.397682666778564453e+01,6.030348300933837891e+00
2.242737388610839844e+01,2.136772918701171875e+01,7.617214202880859375e+00
3.308424758911132812e+01,5.057540893554687500e+00,9.519795417785644531e+00
2.885961532592773438e+01,1.331544685363769531e+01,1.089774322509765625e+01
2.282833862304687500e+01,2.059197044372558594e+01,1.246006774902343750e+01
3.310298156738281250e+01,4.492187500000000000e+00,1.434529209136962891e+01
2.897294425964355469e+01,1.256507968902587891e+01,1.569237613677978516e+01
2.307681655883789062e+01,1.967866325378417969e+01,1.721970176696777344e+01
3.290053558349609375e+01,3.896766901016235352e+00,1.907483482360839844e+01
2.889269638061523438e+01,1.173077392578125000e+01,2.038205909729003906e+01
2.317103958129882812e+01,1.863382530212402344e+01,2.186418724060058594e+01
-6.957873821258544922e+00,9.412806510925292969e+00,-5.917446517944335938e+01
-9.495814323425292969e+00,1.025642871856689453e+01,-5.871607208251953125e+01
-5.465979099273681641e+00,1.210559558868408203e+01,-5.813002014160156250e+01
-7.555368423461914062e+00,1.307862091064453125e+01,-5.772765731811523438e+01
-9.727263450622558594e+00,1.352207279205322266e+01,-5.736036300659179688e+01
-4.185673236846923828e+00,1.420246315002441406e+01,-5.670473480224609375e+01
-6.949700832366943359e+00,1.548967552185058594e+01,-5.617245101928710938e+01
-9.822882652282714844e+00,1.607637596130371094e+01,-5.568655776977539062e+01
-2.877340078353881836e+00,1.620448303222656250e+01,-5.490048599243164062e+01
-6.297593593597412109e+00,1.779723739624023438e+01,-5.424183654785156250e+01
-9.852846145629882812e+00,1.852317428588867188e+01,-5.364060211181640625e+01
-1.549780368804931641e+00,1.809822654724121094e+01,-5.272940444946289062e+01
-5.603343486785888672e+00,1.998587417602539062e+01,-5.194879531860351562e+01
-9.816991806030273438e+00,2.084634971618652344e+01,-5.123620986938476562e+01
-2.119075357913970947e-01,1.987054634094238281e+01,-5.020479965209960938e+01
-4.871587276458740234e+00,2.204059600830078125e+01,-4.930745697021484375e+01
-9.715297698974609375e+00,2.302955436706542969e+01,-4.848833465576171875e+01
1.127475500106811523e+00,2.151017189025878906e+01,-4.734461975097656250e+01
-4.107229709625244141e+00,2.394795608520507812e+01,-4.633654785156250000e+01
-9.548675537109375000e+00,2.505892944335937500e+01,-4.541634750366210938e+01
2.459298372268676758e+00,2.300603294372558594e+01,-4.416810226440429688e+01
-3.315523147583007812e+00,2.569531059265136719e+01,-4.305602264404296875e+01
-9.318255424499511719e+00,2.692088699340820312e+01,-4.204089736938476562e+01
3.774598121643066406e+00,2.434765625000000000e+01,-4.069558334350585938e+01
-2.501490354537963867e+00,2.727038383483886719e+01,-3.948696899414062500e+01
-9.025382041931152344e+00,2.860238265991210938e+01,-3.838371276855468750e+01
5.064655303955078125e+00,2.552654266357421875e+01,-3.695108032226562500e+01
-1.670822620391845703e+00,2.866319084167480469e+01,-3.565399932861328125e+01
-8.672194480895996094e+00,3.009277343750000000e+01,-3.446998596191406250e+01
6.320906639099121094e+00,2.653488540649414062e+01,-3.295964813232421875e+01
-8.289795517921447754e-01,2.986452484130859375e+01,-3.158276557922363281e+01
-8.261046409606933594e+00,3.138197708129882812e+01,-3.032592391967773438e+01
7.534808635711669922e+00,2.736534881591796875e+01,-2.874721908569335938e+01
1.853975653648376465e-02,3.086569404602050781e+01,-2.729977226257324219e+01
-7.794515132904052734e+00,3.246086502075195312e+01,-2.597850799560546875e+01
8.698413848876953125e+00,2.801300811767578125e+01,-2.434279251098632812e+01
8.658141493797302246e-01,3.166049003601074219e+01,-2.283444404602050781e+01
-7.275910377502441406e+00,3.332281875610351562e+01,-2.145759201049804688e+01
9.803724288940429688e+00,2.847339439392089844e+01,-1.977558708190917969e+01
1.707421422004699707e+00,3.224379730224609375e+01,-1.821644592285156250e+01
-6.708678245544433594e+00,3.396214294433593750e+01,-1.679319572448730469e+01
1.084338474273681641e+01,2.874292182922363281e+01,-1.507589149475097656e+01
2.537457466125488281e+00,3.261090469360351562e+01,-1.347638607025146484e+01
-6.096485614776611328e+00,3.437380981445312500e+01,-1.201628780364990234e+01
1.181070518493652344e+01,2.882035064697265625e+01,-1.027532386779785156e+01
3.350650310516357422e+00,3.276011276245117188e+01,-8.646137237548828125e+00
-5.443529129028320312e+00,3.455574417114257812e+01,-7.158940792083740234e+00
1.269902896881103516e+01,2.870525741577148438e+01,-5.406253337860107422e+00
4.141394138336181641e+00,3.269039916992187500e+01,-3.758280992507934570e+00
-4.754213333129882812e+00,3.450669860839843750e+01,-2.253935337066650391e+00
