7.378232002258300781e+00,6.299938201904296875e+00,-4.913459777832031250e+01
9.361198425292968750e+00,1.812870144844055176e+00,-4.921593856811523438e+01
4.239887714385986328e+00,1.012674045562744141e+01,-4.874889755249023438e+01
1.584084033966064453e-01,1.303417587280273438e+01,-4.808489227294921875e+01
9.515895843505859375e+00,7.334608554840087891e+00,-4.542240905761718750e+01
1.164388275146484375e+01,2.519065618515014648e+00,-4.550967025756835938e+01
6.147656440734863281e+00,1.144147682189941406e+01,-4.500843048095703125e+01
1.767550230026245117e+00,1.456170940399169922e+01,-4.429584884643554688e+01
1.158992290496826172e+01,8.320245742797851562e+00,-4.140675354003906250e+01
1.384889030456542969e+01,3.208462715148925781e+00,-4.149940109252929688e+01
8.014595031738281250e+00,1.267977905273437500e+01,-4.096733856201171875e+01
3.364955425262451172e+00,1.599208259582519531e+01,-4.021091461181640625e+01
1.358614540100097656e+01,9.250076293945312500e+00,-3.711355209350585938e+01
1.596101665496826172e+01,3.876338958740234375e+00,-3.721097946166992188e+01
9.827629089355468750e+00,1.383305454254150391e+01,-3.665163040161132812e+01
4.939723968505859375e+00,1.731513023376464844e+01,-3.585644531250000000e+01
1.549177074432373047e+01,1.011814689636230469e+01,-3.257219314575195312e+01
1.796644401550292969e+01,4.518303871154785156e+00,-3.267369461059570312e+01
1.157504940032958984e+01,1.489392948150634766e+01,-3.209081649780273438e+01
6.481483459472656250e+00,1.852242088317871094e+01,-3.126216888427734375e+01
1.729378318786621094e+01,1.091857814788818359e+01,-2.781338882446289062e+01
1.985182571411132812e+01,5.130074977874755859e+00,-2.791830635070800781e+01
1.324510383605957031e+01,1.585530281066894531e+01,-2.731579780578613281e+01
7.979966163635253906e+00,1.960605812072753906e+01,-2.645923995971679688e+01
1.897977066040039062e+01,1.164578342437744141e+01,-2.286798095703125000e+01
2.160412979125976562e+01,5.707458019256591797e+00,-2.297563743591308594e+01
1.482631397247314453e+01,1.671036338806152344e+01,-2.235752105712890625e+01
9.424913406372070312e+00,2.055816459655761719e+01,-2.147879409790039062e+01
2.053911399841308594e+01,1.229522895812988281e+01,-1.776976966857910156e+01
2.321205520629882812e+01,6.246700286865234375e+00,-1.787939834594726562e+01
1.630855369567871094e+01,1.745361709594726562e+01,-1.724981689453125000e+01
1.080688476562500000e+01,2.137288856506347656e+01,-1.635478019714355469e+01
2.196109962463378906e+01,1.286248111724853516e+01,-1.255283927917480469e+01
2.466488265991210938e+01,6.744201660156250000e+00,-1.266373538970947266e+01
1.768173980712890625e+01,1.808044624328613281e+01,-1.202689456939697266e+01
1.211668586730957031e+01,2.204488182067871094e+01,-1.112154769897460938e+01
2.323587226867675781e+01,1.334351348876953125e+01,-7.251750946044921875e+00
2.595236778259277344e+01,7.196493625640869141e+00,-7.363169670104980469e+00
1.893647956848144531e+01,1.858598327636718750e+01,-6.723350048065185547e+00
1.334522724151611328e+01,2.256903457641601562e+01,-5.813736915588378906e+00
2.435542869567871094e+01,1.373538017272949219e+01,-1.902207851409912109e+00
2.706637191772460938e+01,7.600680351257324219e+00,-2.013380289077758789e+00
2.006463813781738281e+01,1.896733856201171875e+01,-1.374862313270568848e+00
1.448453712463378906e+01,2.294228172302246094e+01,-4.670508801937103271e-01
2.531213951110839844e+01,1.403544902801513672e+01,3.460031747817993164e+00
2.799963188171386719e+01,7.954109668731689453e+00,3.349798202514648438e+00
2.105859756469726562e+01,1.922186660766601562e+01,3.982808828353881836e+00
1.552712345123291016e+01,2.316234016418457031e+01,4.882696151733398438e+00
2.609923744201660156e+01,1.424143695831298828e+01,8.799107551574707031e+00
2.874510765075683594e+01,8.254195213317871094e+00,8.690587997436523438e+00
2.191150093078613281e+01,1.934757423400878906e+01,9.313799858093261719e+00
1.646559524536132812e+01,2.322707176208496094e+01,1.019976902008056641e+01
2.671185493469238281e+01,1.435224246978759766e+01,1.407941150665283203e+01
2.929859161376953125e+01,8.499148368835449219e+00,1.397329044342041016e+01
2.261804199218750000e+01,1.934411239624023438e+01,1.458254051208496094e+01
1.729405212402343750e+01,2.313661193847656250e+01,1.544868659973144531e+01
2.714603996276855469e+01,1.436714935302734375e+01,1.926552009582519531e+01
2.965617561340332031e+01,8.687273979187011719e+00,1.916254997253417969e+01
2.317332649230957031e+01,1.921125030517578125e+01,1.975377464294433594e+01
1.800691413879394531e+01,2.289152336120605469e+01,2.059428215026855469e+01
-1.407300567626953125e+01,-1.323029518127441406e+00,-6.469575500488281250e+01
-1.212908554077148438e+01,1.121068120002746582e+00,-6.417012786865234375e+01
-1.383310413360595703e+01,1.295330166816711426e+00,-6.381132507324218750e+01
-1.553738975524902344e+01,1.047253727912902832e+00,-6.341932296752929688e+01
-1.124677467346191406e+01,3.205773353576660156e+00,-6.293688201904296875e+01
-1.350101184844970703e+01,3.436310291290283203e+00,-6.246222686767578125e+01
-1.575560379028320312e+01,3.108119010925292969e+00,-6.194364929199218750e+01
-1.028930950164794922e+01,5.269043445587158203e+00,-6.128302001953125000e+01
-1.307870006561279297e+01,5.554311275482177734e+00,-6.069568252563476562e+01
-1.586852741241455078e+01,5.148236274719238281e+00,-6.005399703979492188e+01
-9.263092041015625000e+00,7.297151088714599609e+00,-5.921969985961914062e+01
-1.256898117065429688e+01,7.635163307189941406e+00,-5.852360153198242188e+01
-1.587543106079101562e+01,7.153973102569580078e+00,-5.776309585571289062e+01
-8.174758911132812500e+00,9.276280403137207031e+00,-5.675926971435546875e+01
-1.197502231597900391e+01,9.664982795715332031e+00,-5.595908355712890625e+01
-1.577587890625000000e+01,9.111735343933105469e+00,-5.508485412597656250e+01
-7.031836032867431641e+00,1.119350528717041016e+01,-5.391964721679687500e+01
-1.130103111267089844e+01,1.163007068634033203e+01,-5.302071762084960938e+01
-1.557091331481933594e+01,1.100855636596679688e+01,-5.203860855102539062e+01
-5.841907501220703125e+00,1.303590393066406250e+01,-5.071986770629882812e+01
-1.055155944824218750e+01,1.351747798919677734e+01,-4.972819519042968750e+01
-1.526196193695068359e+01,1.283192062377929688e+01,-4.864476776123046875e+01
-4.612834453582763672e+00,1.479090404510498047e+01,-4.717982101440429688e+01
-9.731316566467285156e+00,1.531430816650390625e+01,-4.610206222534179688e+01
-1.485060882568359375e+01,1.456915092468261719e+01,-4.492457962036132812e+01
-3.352850914001464844e+00,1.644693374633789062e+01,-4.332453918457031250e+01
-8.846042633056640625e+00,1.700881767272949219e+01,-4.216789245605468750e+01
-1.434001827239990234e+01,1.620899581909179688e+01,-4.090422058105468750e+01
-2.070591449737548828e+00,1.799327850341796875e+01,-3.917981338500976562e+01
-7.901669025421142578e+00,1.858962249755859375e+01,-3.795201873779296875e+01
-1.373365688323974609e+01,1.774065780639648438e+01,-3.661060333251953125e+01
-7.743976712226867676e-01,1.941885757446289062e+01,-3.477249908447265625e+01
-6.904310226440429688e+00,2.004571914672851562e+01,-3.348177719116210938e+01
-1.303523445129394531e+01,1.915336036682128906e+01,-3.207161331176757812e+01
5.270236134529113770e-01,2.071471405029296875e+01,-3.013264083862304688e+01
-5.860816955566406250e+00,2.136801338195800781e+01,-2.878761100769042969e+01
-1.224964237213134766e+01,2.043801116943359375e+01,-2.731812095642089844e+01
1.824896693229675293e+00,2.187217521667480469e+01,-2.529165267944335938e+01
-4.778192996978759766e+00,2.254746246337890625e+01,-2.390129852294921875e+01
-1.138225841522216797e+01,2.158612632751464844e+01,-2.238230323791503906e+01
3.110574245452880859e+00,2.288294029235839844e+01,-2.028099632263183594e+01
-3.663486719131469727e+00,2.357565498352050781e+01,-1.885463714599609375e+01
-1.043853950500488281e+01,2.258952140808105469e+01,-1.729631996154785156e+01
4.375290870666503906e+00,2.374079895019531250e+01,-1.513473701477050781e+01
-2.524331808090209961e+00,2.444648170471191406e+01,-1.368194961547851562e+01
-9.425052642822265625e+00,2.344195175170898438e+01,-1.209471893310546875e+01
5.610984325408935547e+00,2.444006729125976562e+01,-9.887445449829101562e+00
-1.368294000625610352e+00,2.515385055541992188e+01,-8.417882919311523438e+00
-8.348601341247558594e+00,2.413775062561035156e+01,-6.812347412109375000e+00
6.808943748474121094e+00,2.497552108764648438e+01,-4.573836803436279297e+00
-2.030790746212005615e-01,2.569260597229003906e+01,-3.097375631332397461e+00
-7.216181755065917969e+00,2.467174148559570312e+01,-1.484297752380371094e+00
7.961439132690429688e+00,2.534405326843261719e+01,7.703371644020080566e-01
9.634676575660705566e-01,2.605971527099609375e+01,2.243838787078857422e+00
-6.035524845123291016e+00,2.504081153869628906e+01,3.853677988052368164e+00
9.060712814331054688e+00,2.554309654235839844e+01,6.109342575073242188e+00
2.123603105545043945e+00,2.625260734558105469e+01,7.570023059844970703e+00
-4.814577579498291016e+00,2.524267005920410156e+01,9.165865898132324219e+00
1.009923362731933594e+01,2.557100868225097656e+01,1.140743446350097656e+01
3.269485473632812500e+00,2.626956558227539062e+01,1.284550666809082031e+01
-3.561319828033447266e+00,2.527522277832031250e+01,1.441665554046630859e+01
1.107034873962402344e+01,2.542815208435058594e+01,1.662928009033203125e+01
4.393546581268310547e+00,2.611091041564941406e+01,1.803516006469726562e+01
-2.284287452697753906e+00,2.513896751403808594e+01,1.957111549377441406e+01
1.196739864349365234e+01,2.511522865295410156e+01,2.173994064331054688e+01
5.488198280334472656e+00,2.577784347534179688e+01,2.310420799255371094e+01
-9.919847249984741211e-01,2.483462524414062500e+01,2.459470367431640625e+01
-1.603275299072265625e+01,-1.867887139320373535e+00,-6.422462463378906250e+01
-1.747196769714355469e+01,-3.265295982360839844e+00,-6.380037689208984375e+01
-1.712357902526855469e+01,3.804971277713775635e-01,-6.302028274536132812e+01
-1.848861122131347656e+01,-6.470363736152648926e-01,-6.264127349853515625e+01
-1.954006958007812500e+01,-1.965812802314758301e+00,-6.230795288085937500e+01
-1.785397338867187500e+01,2.226079940795898438e+00,-6.141576004028320312e+01
-1.965976333618164062e+01,8.667554259300231934e-01,-6.091436767578125000e+01
-2.105073547363281250e+01,-8.778300285339355469e-01,-6.047341918945312500e+01
-1.846503067016601562e+01,4.056778907775878906e+00,-5.940078735351562500e+01
-2.069951248168945312e+01,2.374750614166259766e+00,-5.878036880493164062e+01
-2.242073631286621094e+01,2.160291820764541626e-01,-5.823473358154296875e+01
-1.895271301269531250e+01,5.860328197479248047e+00,-5.698892974853515625e+01
-2.160098457336425781e+01,3.866913080215454102e+00,-5.625362777709960938e+01
-2.364086341857910156e+01,1.308409094810485840e+00,-5.560696411132812500e+01
-1.931335639953613281e+01,7.624745845794677734e+00,-5.419492340087890625e+01
-2.235758399963378906e+01,5.333106040954589844e+00,-5.334966659545898438e+01
-2.470256996154785156e+01,2.392071008682250977e+00,-5.260629653930664062e+01
-1.954491424560546875e+01,9.338068962097167969e+00,-5.103886032104492188e+01
-2.296483421325683594e+01,6.763738632202148438e+00,-5.008929824829101562e+01
-2.559918212890625000e+01,3.459718227386474609e+00,-4.925419235229492188e+01
-1.964591789245605469e+01,1.098902320861816406e+01,-4.754187774658203125e+01
-2.341868972778320312e+01,8.149125099182128906e+00,-4.649435043334960938e+01
-2.632480430603027344e+01,4.504258632659912109e+00,-4.557309341430664062e+01
-1.961516380310058594e+01,1.256635570526123047e+01,-4.372595214843750000e+01
-2.371542549133300781e+01,9.479912757873535156e+00,-4.258749008178710938e+01
-2.687378501892089844e+01,5.518560409545898438e+00,-4.158626174926757812e+01
-1.945335769653320312e+01,1.405972194671630859e+01,-3.961785888671875000e+01
-2.385370445251464844e+01,1.074719142913818359e+01,-3.839606094360351562e+01
-2.724322319030761719e+01,6.495999813079833984e+00,-3.732155990600585938e+01
-1.916155624389648438e+01,1.545909690856933594e+01,-3.524510192871093750e+01
-2.383262062072753906e+01,1.194289875030517578e+01,-3.394814682006835938e+01
-2.743078613281250000e+01,7.430108070373535156e+00,-3.280751037597656250e+01
-1.874129295349121094e+01,1.675474548339843750e+01,-3.063612365722656250e+01
-2.365176582336425781e+01,1.305838584899902344e+01,-2.927270126342773438e+01
-2.743435478210449219e+01,8.314339637756347656e+00,-2.807360267639160156e+01
-1.819578742980957031e+01,1.793858909606933594e+01,-2.582224082946777344e+01
-2.331284523010253906e+01,1.408664321899414062e+01,-2.440145301818847656e+01
-2.725448799133300781e+01,9.142990112304687500e+00,-2.315192413330078125e+01
-1.752872848510742188e+01,1.900249862670898438e+01,-2.083602523803710938e+01
-2.281822967529296875e+01,1.502077960968017578e+01,-1.936735916137695312e+01
-2.689268875122070312e+01,9.910601615905761719e+00,-1.807573318481445312e+01
-1.674410057067871094e+01,1.993892097473144531e+01,-1.571001243591308594e+01
-2.217058944702148438e+01,1.585415458679199219e+01,-1.420331573486328125e+01
-2.635046958923339844e+01,1.061172771453857422e+01,-1.287826728820800781e+01
-1.584762859344482422e+01,2.074227714538574219e+01,-1.047898292541503906e+01
-2.137463569641113281e+01,1.658168601989746094e+01,-8.944364547729492188e+00
-2.563215065002441406e+01,1.124193954467773438e+01,-7.594708442687988281e+00
-1.484524154663085938e+01,2.140692710876464844e+01,-5.177977085113525391e+00
-2.043608093261718750e+01,1.719834136962890625e+01,-3.625639677047729492e+00
-2.474265861511230469e+01,1.179707717895507812e+01,-2.260432004928588867e+00
-1.374334049224853516e+01,2.192807960510253906e+01,1.577507406473159790e-01
-1.936043548583984375e+01,1.769978904724121094e+01,1.717373609542846680e+00
-2.368723487854003906e+01,1.227309799194335938e+01,3.088996887207031250e+00
-1.254959869384765625e+01,2.230274963378906250e+01,5.492426872253417969e+00
-1.815542984008789062e+01,1.808292007446289062e+01,7.048923969268798828e+00
-2.247342872619628906e+01,1.266705703735351562e+01,8.417773246765136719e+00
-1.127199459075927734e+01,2.252830123901367188e+01,1.079037094116210938e+01
-1.682903289794921875e+01,1.834510993957519531e+01,1.233332729339599609e+01
-2.110958099365234375e+01,1.297643280029296875e+01,1.369028854370117188e+01
-9.918819427490234375e+00,2.260289192199707031e+01,1.601602172851562500e+01
-1.538984107971191406e+01,1.848441696166992188e+01,1.753509712219238281e+01
-1.960415267944335938e+01,1.319879341125488281e+01,1.887106132507324219e+01
-8.499346733093261719e+00,2.252636909484863281e+01,2.113465690612792969e+01
-1.384793090820312500e+01,1.850025749206542969e+01,2.261972236633300781e+01
-1.796774101257324219e+01,1.333296489715576172e+01,2.392574501037597656e+01
-7.023111343383789062e+00,2.229939079284667969e+01,2.611197090148925781e+01
-1.221337032318115234e+01,1.839237785339355469e+01,2.755308151245117188e+01
-1.621126556396484375e+01,1.337802600860595703e+01,2.882045364379882812e+01
-1.799680900573730469e+01,-5.144454479217529297e+00,-6.353819274902343750e+01
-2.019489097595214844e+01,-3.493563652038574219e+00,-6.204492950439453125e+01
-2.042130851745605469e+01,-5.120989799499511719e+00,-6.186773300170898438e+01
-2.020402145385742188e+01,-6.737928390502929688e+00,-6.178834152221679688e+01
-2.191697692871093750e+01,-2.898877143859863281e+00,-6.012547683715820312e+01
-2.221651077270507812e+01,-5.051791191101074219e+00,-5.989105606079101562e+01
-2.192905235290527344e+01,-7.190832138061523438e+00,-5.978603744506835938e+01
-2.349257850646972656e+01,-2.284826278686523438e+00,-5.780419540405273438e+01
-2.386322212219238281e+01,-4.948839187622070312e+00,-5.751412963867187500e+01
-2.350755119323730469e+01,-7.595685482025146484e+00,-5.738417053222656250e+01
-2.491126060485839844e+01,-1.655506134033203125e+00,-5.509669113159179688e+01
-2.535045242309570312e+01,-4.812800407409667969e+00,-5.475292968750000000e+01
-2.492900466918945312e+01,-7.949793338775634766e+00,-5.459888458251953125e+01
-2.616284751892089844e+01,-1.015084028244018555e+00,-5.201973342895507812e+01
-2.666786956787109375e+01,-4.644533634185791016e+00,-5.162453079223632812e+01
-2.618329048156738281e+01,-8.250592231750488281e+00,-5.144747924804687500e+01
-2.723971748352050781e+01,-3.679029941558837891e-01,-4.859523391723632812e+01
-2.780695152282714844e+01,-4.445204734802246094e+00,-4.815129089355468750e+01
-2.726258087158203125e+01,-8.496251106262207031e+00,-4.795238876342773438e+01
-2.813458061218261719e+01,2.817709743976593018e-01,-4.484615325927734375e+01
-2.876029968261718750e+01,-4.216188430786132812e+00,-4.435641479492187500e+01
-2.815984916687011719e+01,-8.685180664062500000e+00,-4.413697433471679688e+01
-2.884075164794921875e+01,9.295083284378051758e-01,-4.079619598388671875e+01
-2.952081680297851562e+01,-3.958906412124633789e+00,-4.026393890380859375e+01
-2.886814880371093750e+01,-8.815830230712890625e+00,-4.002547073364257812e+01
-2.935406684875488281e+01,1.571122884750366211e+00,-3.647369384765625000e+01
-3.008408737182617188e+01,-3.675162315368652344e+00,-3.590243148803710938e+01
-2.938352012634277344e+01,-8.887562751770019531e+00,-3.564653778076171875e+01
-2.967148971557617188e+01,2.202119588851928711e+00,-3.190747070312500000e+01
-3.044630622863769531e+01,-3.366861820220947266e+00,-3.130109596252441406e+01
-2.970270347595214844e+01,-8.899952888488769531e+00,-3.102944564819335938e+01
-2.978985977172851562e+01,2.818417072296142578e+00,-2.712744522094726562e+01
-3.060433959960937500e+01,-3.035966396331787109e+00,-2.649000549316406250e+01
-2.982275199890136719e+01,-8.852676391601562500e+00,-2.620440101623535156e+01
-2.970915222167968750e+01,3.415904521942138672e+00,-2.216595077514648438e+01
-3.055796813964843750e+01,-2.684814929962158203e+00,-2.150167655944824219e+01
-2.974338912963867188e+01,-8.746205329895019531e+00,-2.120408248901367188e+01
-2.943001365661621094e+01,3.990569353103637695e+00,-1.705655097961425781e+01
-3.030740547180175781e+01,-2.315724372863769531e+00,-1.636989593505859375e+01
-2.946537971496582031e+01,-8.581322669982910156e+00,-1.606227684020996094e+01
-2.895347213745117188e+01,4.538503646850585938e+00,-1.183270740509033203e+01
-2.985352134704589844e+01,-1.931073665618896484e+00,-1.112828826904296875e+01
-2.898979377746582031e+01,-8.358898162841796875e+00,-1.081268215179443359e+01
-2.828345298767089844e+01,5.055941104888916016e+00,-6.529741764068603516e+00
-2.920032119750976562e+01,-1.533558726310729980e+00,-5.812235355377197266e+00
-2.832046127319335938e+01,-8.080608367919921875e+00,-5.490799903869628906e+00
-2.742450332641601562e+01,5.539799690246582031e+00,-1.183196187019348145e+00
-2.835190391540527344e+01,-1.125773072242736816e+00,-4.574173986911773682e-01
-2.746191406250000000e+01,-7.748331069946289062e+00,-1.322711855173110962e-01
-2.638172912597656250e+01,5.986405849456787109e+00,4.171306133270263672e+00
-2.731343269348144531e+01,-7.104386091232299805e-01,4.900479316711425781e+00
-2.641927146911621094e+01,-7.364111423492431641e+00,5.227155208587646484e+00
-2.516263389587402344e+01,6.393043518066406250e+00,9.497932434082031250e+00
-2.609248542785644531e+01,-2.903820872306823730e-01,1.022564697265625000e+01
-2.377526473999023438e+01,6.756947994232177734e+00,1.476102638244628906e+01
-2.469710731506347656e+01,1.316470503807067871e-01,1.548242950439453125e+01
-2.222860908508300781e+01,7.075535297393798828e+00,1.992523765563964844e+01
-2.313621139526367188e+01,5.527691245079040527e-01,2.063548278808593750e+01
-2.226527976989746094e+01,-5.927948474884033203e+00,2.095366287231445312e+01
-2.053352355957031250e+01,7.346915245056152344e+00,2.495632743835449219e+01
-2.142063713073730469e+01,9.702246189117431641e-01,2.565063095092773438e+01
-2.056934356689453125e+01,-5.365365505218505859e+00,2.596171760559082031e+01
-1.870109558105468750e+01,7.569129943847656250e+00,2.982053184509277344e+01
-1.956202125549316406e+01,1.381157636642456055e+00,3.049430274963378906e+01
-1.873588180541992188e+01,-4.766909122467041016e+00,3.079617118835449219e+01
-1.747422027587890625e+01,-6.997159481048583984e+00,-6.350703811645507812e+01
-1.604270362854003906e+01,-8.332402229309082031e+00,-6.371516799926757812e+01
-1.954386711120605469e+01,-8.231739044189453125e+00,-6.181542205810546875e+01
-1.849905395507812500e+01,-9.505731582641601562e+00,-6.194382858276367188e+01
-1.714028739929199219e+01,-1.047365570068359375e+01,-6.216488265991210938e+01
-2.105574607849121094e+01,-9.166993141174316406e+00,-5.982185745239257812e+01
-1.967356300354003906e+01,-1.085234832763671875e+01,-5.999172973632812500e+01
-1.787607383728027344e+01,-1.213281345367431641e+01,-6.028415679931640625e+01
-2.242689895629882812e+01,-1.004096889495849609e+01,-5.742849731445312500e+01
-2.071658706665039062e+01,-1.212642478942871094e+01,-5.763869857788085938e+01
-1.849240493774414062e+01,-1.371090412139892578e+01,-5.800053787231445312e+01
-2.364816284179687500e+01,-1.084785366058349609e+01,-5.465144348144531250e+01
-2.162122917175292969e+01,-1.331950378417968750e+01,-5.490054702758789062e+01
-1.898513793945312500e+01,-1.519731998443603516e+01,-5.532940292358398438e+01
-2.471102333068847656e+01,-1.158204841613769531e+01,-5.150786972045898438e+01
-2.238084411621093750e+01,-1.442324256896972656e+01,-5.179426193237304688e+01
-1.935062599182128906e+01,-1.658193016052246094e+01,-5.228722763061523438e+01
-2.560863113403320312e+01,-1.223880767822265625e+01,-4.802023315429687500e+01
-2.299101257324218750e+01,-1.543064117431640625e+01,-4.834193801879882812e+01
-1.958679962158203125e+01,-1.785569763183593750e+01,-4.889575195312500000e+01
-2.633519172668457031e+01,-1.281381320953369141e+01,-4.421183776855468750e+01
-2.344754219055175781e+01,-1.633496856689453125e+01,-4.456672286987304688e+01
-1.969214439392089844e+01,-1.901020240783691406e+01,-4.517767333984375000e+01
-2.688518333435058594e+01,-1.330289745330810547e+01,-4.010680770874023438e+01
-2.374683952331542969e+01,-1.712969970703125000e+01,-4.049251174926757812e+01
-1.966535949707031250e+01,-2.003713607788085938e+01,-4.115651321411132812e+01
-2.725553321838378906e+01,-1.370310592651367188e+01,-3.573380279541015625e+01
-2.388729476928710938e+01,-1.780997467041015625e+01,-3.614777755737304688e+01
-1.950718879699707031e+01,-2.093020629882812500e+01,-3.686035919189453125e+01
-2.744373703002929688e+01,-1.401173496246337891e+01,-3.112209129333496094e+01
-2.386841011047363281e+01,-1.837126922607421875e+01,-3.156150817871093750e+01
-1.921876907348632812e+01,-2.168357276916503906e+01,-3.231793212890625000e+01
-2.744787979125976562e+01,-1.422641372680664062e+01,-2.630182647705078125e+01
-2.368936347961425781e+01,-1.880939292907714844e+01,-2.676375198364257812e+01
-1.880145835876464844e+01,-2.229146766662597656e+01,-2.755893516540527344e+01
-2.726871681213378906e+01,-1.434604835510253906e+01,-2.130558013916015625e+01
-2.335199356079101562e+01,-1.912182998657226562e+01,-2.178695678710937500e+01
-1.825842857360839844e+01,-2.275032234191894531e+01,-2.261560440063476562e+01
-2.690733718872070312e+01,-1.436982631683349609e+01,-1.616719436645507812e+01
-2.285865783691406250e+01,-1.930655097961425781e+01,-1.666478538513183594e+01
-1.759351921081542969e+01,-2.305730628967285156e+01,-1.752134323120117188e+01
-2.636543464660644531e+01,-1.429722404479980469e+01,-1.092033863067626953e+01
-2.221197891235351562e+01,-1.936180305480957031e+01,-1.143079853057861328e+01
-1.681057739257812500e+01,-2.320960617065429688e+01,-1.230952548980712891e+01
-2.564752006530761719e+01,-1.412913703918457031e+01,-5.600427627563476562e+00
-2.141695785522460938e+01,-1.928752517700195312e+01,-6.120380878448486328e+00
-1.591529083251953125e+01,-2.320679664611816406e+01,-7.015417098999023438e+00
-2.475813102722167969e+01,-1.386661052703857422e+01,-2.431669533252716064e-01
-2.047877311706542969e+01,-1.908457565307617188e+01,-7.691116333007812500e-01
-1.491371822357177734e+01,-2.304901123046875000e+01,-1.674458742141723633e+00
-2.370277595520019531e+01,-1.351113128662109375e+01,5.115736007690429688e+00
-1.940338325500488281e+01,-1.875360107421875000e+01,4.587335109710693359e+00
-1.381213092803955078e+01,-2.273665237426757812e+01,3.677722215652465820e+00
-2.248908042907714844e+01,-1.306536483764648438e+01,1.044047164916992188e+01
-1.819828987121582031e+01,-1.829732322692871094e+01,9.913125991821289062e+00
-1.261818981170654297e+01,-2.227226638793945312e+01,9.005314826965332031e+00
-1.687148475646972656e+01,-1.771870040893554688e+01,1.517261028289794922e+01
-1.134001064300537109e+01,-2.165917396545410156e+01,1.427272224426269531e+01
-1.961940956115722656e+01,-1.191519069671630859e+01,2.084514427185058594e+01
-1.543167304992675781e+01,-1.702132797241210938e+01,2.033045196533203125e+01
-9.985766410827636719e+00,-2.090082359313964844e+01,1.944448280334472656e+01
-1.798260879516601562e+01,-1.121845912933349609e+01,2.585559654235839844e+01
-1.388879585266113281e+01,-1.621032905578613281e+01,2.535246658325195312e+01
-8.564805984497070312e+00,-2.000282859802246094e+01,2.448632049560546875e+01
-1.622574615478515625e+01,-1.044678401947021484e+01,3.069320106506347656e+01
-1.225303363800048828e+01,-1.529088592529296875e+01,3.020494651794433594e+01
-7.086620330810546875e+00,-1.897115707397460938e+01,2.936443901062011719e+01
-1.408180332183837891e+01,-8.784495353698730469e+00,-6.410831451416015625e+01
-1.555188179016113281e+01,-1.105848503112792969e+01,-6.246619415283203125e+01
-1.384786319732666016e+01,-1.123274707794189453e+01,-6.282499313354492188e+01
-1.214357852935791016e+01,-1.098467063903808594e+01,-6.321699523925781250e+01
-1.577478790283203125e+01,-1.290646457672119141e+01,-6.068275833129882812e+01
-1.352055072784423828e+01,-1.313700199127197266e+01,-6.115741348266601562e+01
-1.126595878601074219e+01,-1.280881023406982422e+01,-6.167599105834960938e+01
-1.589225959777832031e+01,-1.466817855834960938e+01,-5.849377441406250000e+01
-1.310286903381347656e+01,-1.495344638824462891e+01,-5.908111190795898438e+01
-1.031304168701171875e+01,-1.454737186431884766e+01,-5.972279357910156250e+01
-1.590355205535888672e+01,-1.633193016052246094e+01,-5.591396331787109375e+01
-1.259766197204589844e+01,-1.666994094848632812e+01,-5.661005783081054688e+01
-9.291213035583496094e+00,-1.618875122070312500e+01,-5.737056350708007812e+01
-1.580819988250732422e+01,-1.788611793518066406e+01,-5.295921325683593750e+01
-1.200793647766113281e+01,-1.827482223510742188e+01,-5.375939559936523438e+01
-8.207080841064453125e+00,-1.772157287597656250e+01,-5.463362503051757812e+01
-1.560721683502197266e+01,-1.932088279724121094e+01,-4.965065765380859375e+01
-1.133802127838134766e+01,-1.975745010375976562e+01,-5.054958724975585938e+01
-7.068139553070068359e+00,-1.913593482971191406e+01,-5.153169631958007812e+01
-1.530201911926269531e+01,-2.062653541564941406e+01,-4.601045608520507812e+01
-1.059236717224121094e+01,-2.110810852050781250e+01,-4.700213241577148438e+01
-5.881964206695556641e+00,-2.042255020141601562e+01,-4.808555984497070312e+01
-1.489411735534667969e+01,-2.179386329650878906e+01,-4.206158828735351562e+01
-9.775634765625000000e+00,-2.231726837158203125e+01,-4.313934707641601562e+01
-4.656342506408691406e+00,-2.157211112976074219e+01,-4.431682968139648438e+01
-1.438678741455078125e+01,-2.281543159484863281e+01,-3.783167266845703125e+01
-8.893594741821289062e+00,-2.337731361389160156e+01,-3.898831558227539062e+01
-3.399619817733764648e+00,-2.257749176025390625e+01,-4.025198745727539062e+01
-1.378322219848632812e+01,-2.368476867675781250e+01,-3.334902954101562500e+01
-7.952145099639892578e+00,-2.428111267089843750e+01,-3.457682800292968750e+01
-2.120156764984130859e+00,-2.343214797973632812e+01,-3.591823959350585938e+01
-1.308733749389648438e+01,-2.439519500732421875e+01,-2.864287948608398438e+01
-6.957424640655517578e+00,-2.502205657958984375e+01,-2.993360328674316406e+01
-8.265005350112915039e-01,-2.412969779968261719e+01,-3.134376525878906250e+01
-1.230396842956542969e+01,-2.494261550903320312e+01,-2.374513435363769531e+01
-5.916128158569335938e+00,-2.559591484069824219e+01,-2.509016227722167969e+01
4.726977646350860596e-01,-2.466591262817382812e+01,-2.655965232849121094e+01
-1.143845081329345703e+01,-2.532342338562011719e+01,-1.868893051147460938e+01
-4.835361003875732422e+00,-2.599871063232421875e+01,-2.007928276062011719e+01
1.768704771995544434e+00,-2.503737449645996094e+01,-2.159827995300292969e+01
-1.049623870849609375e+01,-2.553438186645507812e+01,-1.350732421875000000e+01
-3.722177982330322266e+00,-2.622709465026855469e+01,-1.493368244171142578e+01
3.052874326705932617e+00,-2.524096107482910156e+01,-1.649200057983398438e+01
-9.483696937561035156e+00,-2.557470703125000000e+01,-8.235460281372070312e+00
-2.584073781967163086e+00,-2.628038978576660156e+01,-9.688247680664062500e+00
4.316647052764892578e+00,-2.527585983276367188e+01,-1.127547836303710938e+01
-8.408016204833984375e+00,-2.544419670104980469e+01,-2.908560991287231445e+00
-1.428738117218017578e+00,-2.615797996520996094e+01,-4.378123760223388672e+00
5.551569461822509766e+00,-2.514188003540039062e+01,-5.983659267425537109e+00
-7.275847434997558594e+00,-2.514313888549804688e+01,2.437822103500366211e+00
-2.638245224952697754e-01,-2.586022377014160156e+01,9.613608717918395996e-01
6.749278545379638672e+00,-2.483935928344726562e+01,-6.517169475555419922e-01
-6.095091342926025391e+00,-2.467403793334960938e+01,7.767926692962646484e+00
9.028800725936889648e-01,-2.538969993591308594e+01,6.294425010681152344e+00
7.901872634887695312e+00,-2.437079620361328125e+01,4.684585571289062500e+00
-4.873600006103515625e+00,-2.403993034362792969e+01,1.304607677459716797e+01
2.063509464263916016e+00,-2.474944305419921875e+01,1.158539581298828125e+01
9.001689910888671875e+00,-2.373950386047363281e+01,9.989552497863769531e+00
-3.619405984878540039e+00,-2.324476242065429688e+01,1.823681640625000000e+01
3.210342645645141602e+00,-2.394331932067871094e+01,1.679874420166015625e+01
1.004114818572998047e+01,-2.294897651672363281e+01,1.522759532928466797e+01
-2.341102361679077148e+00,-2.229436874389648438e+01,2.330572700500488281e+01
4.335700035095214844e+00,-2.297712707519531250e+01,2.189984703063964844e+01
1.101353359222412109e+01,-2.200518417358398438e+01,2.036389350891113281e+01
-1.047105193138122559e+00,-2.119486236572265625e+01,2.821878242492675781e+01
5.432095527648925781e+00,-2.185747718811035156e+01,2.685451316833496094e+01
1.191227817535400391e+01,-2.091426086425781250e+01,2.536401748657226562e+01
-1.212205696105957031e+01,-8.239637374877929688e+00,-6.457944488525390625e+01
-1.068284130096435547e+01,-6.842228412628173828e+00,-6.500370025634765625e+01
-1.055738830566406250e+01,-1.031791400909423828e+01,-6.361603546142578125e+01
-9.192357063293457031e+00,-9.290380477905273438e+00,-6.399504470825195312e+01
-8.140897750854492188e+00,-7.971603870391845703e+00,-6.432836914062500000e+01
-9.167589187622070312e+00,-1.192677116394042969e+01,-6.220388031005859375e+01
-7.361800193786621094e+00,-1.056744670867919922e+01,-6.270526885986328125e+01
-5.970826625823974609e+00,-8.822861671447753906e+00,-6.314621734619140625e+01
-7.716537952423095703e+00,-1.345591354370117188e+01,-6.037600326538085938e+01
-5.482056617736816406e+00,-1.177388572692871094e+01,-6.099642181396484375e+01
-3.760833263397216797e+00,-9.615164756774902344e+00,-6.154206085205078125e+01
-6.213930130004882812e+00,-1.489510726928710938e+01,-5.814472961425781250e+01
-3.565659761428833008e+00,-1.290169143676757812e+01,-5.888003540039062500e+01
-1.525779843330383301e+00,-1.034318828582763672e+01,-5.952669525146484375e+01
-4.669602870941162109e+00,-1.623458480834960938e+01,-5.552355575561523438e+01
-1.625376224517822266e+00,-1.394294452667236328e+01,-5.636881256103515625e+01
7.196103930473327637e-01,-1.100190925598144531e+01,-5.711218261718750000e+01
-3.094138383865356445e+00,-1.746544647216796875e+01,-5.253144836425781250e+01
3.257818520069122314e-01,-1.489111709594726562e+01,-5.348100662231445312e+01
2.960128545761108398e+00,-1.158709621429443359e+01,-5.431611251831054688e+01
-1.498008966445922852e+00,-1.857965278625488281e+01,-4.918844604492187500e+01
2.274764060974121094e+00,-1.573975658416748047e+01,-5.023597717285156250e+01
5.180878639221191406e+00,-1.209488964080810547e+01,-5.115723419189453125e+01
1.082118302583694458e-01,-1.956931495666503906e+01,-4.551545715332031250e+01
4.208474159240722656e+00,-1.648287200927734375e+01,-4.665391921997070312e+01
7.366833686828613281e+00,-1.252151966094970703e+01,-4.765514755249023438e+01
1.713719606399536133e+00,-2.042821884155273438e+01,-4.153835296630859375e+01
6.114066123962402344e+00,-1.711568832397460938e+01,-4.276014709472656250e+01
9.503584861755371094e+00,-1.286449718475341797e+01,-4.383465194702148438e+01
3.307743310928344727e+00,-2.115058708190917969e+01,-3.728374481201171875e+01
7.978807449340820312e+00,-1.763438987731933594e+01,-3.858069992065429688e+01
1.157697105407714844e+01,-1.312159824371337891e+01,-3.972133636474609375e+01
4.879558086395263672e+00,-2.173108291625976562e+01,-3.277925491333007812e+01
9.790031433105468750e+00,-1.803472328186035156e+01,-3.414268112182617188e+01
1.357262039184570312e+01,-1.329067707061767578e+01,-3.534177780151367188e+01
6.418841838836669922e+00,-2.216649055480957031e+01,-2.805553245544433594e+01
1.153590011596679688e+01,-1.831454467773437500e+01,-2.947632217407226562e+01
1.547754287719726562e+01,-1.337089157104492188e+01,-3.072585105895996094e+01
7.915174961090087891e+00,-2.245374870300292969e+01,-2.314455795288085938e+01
1.320467567443847656e+01,-1.847202873229980469e+01,-2.461322402954101562e+01
1.727913284301757812e+01,-1.336185073852539062e+01,-2.590485000610351562e+01
9.358434677124023438e+00,-2.259036254882812500e+01,-1.807830810546875000e+01
1.478492546081542969e+01,-1.850559425354003906e+01,-1.958500480651855469e+01
1.896480369567871094e+01,-1.326316833496093750e+01,-2.091005325317382812e+01
1.073922348022460938e+01,-2.257618522644042969e+01,-1.289121437072753906e+01
1.626622962951660156e+01,-1.841559410095214844e+01,-1.442583274841308594e+01
2.052374649047851562e+01,-1.307584762573242188e+01,-1.577548885345458984e+01
1.204820919036865234e+01,-2.241105651855468750e+01,-7.618029117584228516e+00
1.763904953002929688e+01,-1.820247077941894531e+01,-9.170366287231445312e+00
2.194562721252441406e+01,-1.280120563507080078e+01,-1.053557395935058594e+01
1.327643680572509766e+01,-2.209569740295410156e+01,-2.293765306472778320e+00
1.889353179931640625e+01,-1.786740684509277344e+01,-3.853388309478759766e+00
2.322033119201660156e+01,-1.244071578979492188e+01,-5.225011348724365234e+00
1.441594600677490234e+01,-2.163273429870605469e+01,3.045836925506591797e+00
2.002177810668945312e+01,-1.741290473937988281e+01,1.489339947700500488e+00
2.433977699279785156e+01,-1.199704170227050781e+01,1.204902455210685730e-01
1.545910739898681641e+01,-2.102513694763183594e+01,8.365047454833984375e+00
2.101614570617675781e+01,-1.684194374084472656e+01,6.822091102600097656e+00
2.529669380187988281e+01,-1.147326755523681641e+01,5.465130329132080078e+00
1.639864730834960938e+01,-2.027664566040039062e+01,1.362823009490966797e+01
2.186966896057128906e+01,-1.615817070007324219e+01,1.210915374755859375e+01
2.608398056030273438e+01,-1.087254714965820312e+01,1.077318954467773438e+01
1.722859382629394531e+01,-1.939258575439453125e+01,1.880035018920898438e+01
2.257717704772949219e+01,-1.536647415161132812e+01,1.731528472900390625e+01
2.669698905944824219e+01,-1.019918155670166016e+01,1.600926208496093750e+01
1.794340515136718750e+01,-1.837902450561523438e+01,2.384675216674804688e+01
2.313366317749023438e+01,-1.447201347351074219e+01,2.240563964843750000e+01
2.713155937194824219e+01,-9.457660675048828125e+00,2.113826751708984375e+01
-1.015800094604492188e+01,-4.963069915771484375e+00,-6.526588439941406250e+01
-7.486077308654785156e+00,-6.443852901458740234e+00,-6.459138488769531250e+01
-7.259660243988037109e+00,-4.816426753997802734e+00,-6.476858520507812500e+01
-5.104586124420166016e+00,-6.801814079284667969e+00,-6.349416351318359375e+01
-4.805052757263183594e+00,-4.648900032043457031e+00,-6.372858047485351562e+01
-2.688990354537963867e+00,-7.114308834075927734e+00,-6.197259521484375000e+01
-2.318346500396728516e+00,-4.450295925140380859e+00,-6.226266479492187500e+01
-2.553836107254028320e-01,-7.379272460937500000e+00,-6.003697204589843750e+01
1.838092207908630371e-01,-4.221978187561035156e+00,-6.038073348999023438e+01
2.179887533187866211e+00,-7.594754219055175781e+00,-5.769874572753906250e+01
2.684909105300903320e+00,-3.965304613113403320e+00,-5.809394836425781250e+01
4.600665569305419922e+00,-7.759475231170654297e+00,-5.497507476806640625e+01
5.167899131774902344e+00,-3.682173728942871094e+00,-5.541901779174804688e+01
6.990653514862060547e+00,-7.872401714324951172e+00,-5.188417434692382812e+01
7.616373538970947266e+00,-3.374442338943481445e+00,-5.237391281127929688e+01
9.333799362182617188e+00,-7.932467937469482422e+00,-4.844521331787109375e+01
1.001386547088623047e+01,-3.044053316116333008e+00,-4.897747039794921875e+01
1.161442947387695312e+01,-7.939620018005371094e+00,-4.468251800537109375e+01
1.234444999694824219e+01,-2.693334817886352539e+00,-4.525377655029296875e+01
1.381767463684082031e+01,-7.893609523773193359e+00,-4.062137603759765625e+01
1.459249305725097656e+01,-2.324628114700317383e+00,-4.122774887084960938e+01
1.592812538146972656e+01,-7.794754505157470703e+00,-3.628793334960937500e+01
1.674260520935058594e+01,-1.940370917320251465e+00,-3.692537307739257812e+01
1.793220710754394531e+01,-7.643805980682373047e+00,-3.171182250976562500e+01
1.878102302551269531e+01,-1.543086647987365723e+00,-3.237609863281250000e+01
1.981645965576171875e+01,-7.441817760467529297e+00,-2.692403221130371094e+01
2.069384956359863281e+01,-1.135523915290832520e+00,-2.761068725585937500e+01
2.156780815124511719e+01,-7.189943790435791016e+00,-2.195561218261718750e+01
2.246785545349121094e+01,-7.203662991523742676e-01,-2.266003227233886719e+01
2.317504882812500000e+01,-6.889849185943603516e+00,-1.684045600891113281e+01
2.409191513061523438e+01,-3.003494143486022949e-01,-1.755796241760253906e+01
2.462747001647949219e+01,-6.543929100036621094e+00,-1.161281013488769531e+01
2.555487251281738281e+01,1.216436624526977539e-01,-1.233858871459960938e+01
2.591482543945312500e+01,-6.154023170471191406e+00,-6.307321071624755859e+00
2.684652900695800781e+01,5.428211092948913574e-01,-7.036493778228759766e+00
2.702898216247558594e+01,-5.723027706146240234e+00,-9.596680998802185059e-01
2.795883178710937500e+01,9.603974819183349609e-01,-1.687383174896240234e+00
2.796237754821777344e+01,-5.253782272338867188e+00,4.394392490386962891e+00
2.888422012329101562e+01,1.371518731117248535e+00,3.672988891601562500e+00
2.870843696594238281e+01,-4.749289035797119141e+00,9.719014167785644531e+00
2.961604118347167969e+01,1.773477196693420410e+00,9.008769035339355469e+00
2.926276969909667969e+01,-4.213131904602050781e+00,1.497867965698242188e+01
3.014988327026367188e+01,2.163558721542358398e+00,1.428437614440917969e+01
2.962138938903808594e+01,-3.648764848709106445e+00,2.013818931579589844e+01
3.048231506347656250e+01,2.539207696914672852e+00,1.946442031860351562e+01
-1.501646518707275391e+01,-5.390883445739746094e+00,-6.869809722900390625e+01
-1.031502819061279297e+01,-2.743858337402343750e+00,-6.896587371826171875e+01
-1.221177673339843750e+01,-9.746657609939575195e-01,-6.869010162353515625e+01
-7.009504795074462891e+00,-9.058334231376647949e-01,-6.863034057617187500e+01
-6.134789943695068359e+00,-2.885117530822753906e+00,-6.866622161865234375e+01
-8.393860816955566406e+00,7.822036743164062500e-01,-6.846019744873046875e+01
-1.019420337677001953e+01,2.064704656600952148e+00,-6.816731262207031250e+01
-4.222480297088623047e+00,6.147435307502746582e-01,-6.768584442138671875e+01
-3.065300226211547852e+00,-2.003627300262451172e+00,-6.773332214355468750e+01
-6.053821563720703125e+00,2.847835063934326172e+00,-6.746077728271484375e+01
-8.435440063476562500e+00,4.544495105743408203e+00,-6.707332611083984375e+01
-1.407135367393493652e+00,2.131248474121093750e+00,-6.628900909423828125e+01
2.471261844038963318e-02,-1.108735918998718262e+00,-6.634774780273437500e+01
-3.673307418823242188e+00,4.894459724426269531e+00,-6.601049041748046875e+01
-6.620331287384033203e+00,6.993861198425292969e+00,-6.553105926513671875e+01
1.417608737945556641e+00,3.633511781692504883e+00,-6.444926452636718750e+01
3.114566326141357422e+00,-2.064347714185714722e-01,-6.451886749267578125e+01
-1.268197178840637207e+00,6.908348083496093750e+00,-6.411916351318359375e+01
-4.760912418365478516e+00,9.396622657775878906e+00,-6.355096435546875000e+01
4.232720375061035156e+00,5.111373901367187500e+00,-6.217738723754882812e+01
6.183486938476562500e+00,6.972360014915466309e-01,-6.225741195678710938e+01
1.145408034324645996e+00,8.876008987426757812e+00,-6.179796218872070312e+01
-2.869685649871826172e+00,1.173619937896728516e+01,-6.114476013183593750e+01
7.019711017608642578e+00,6.555137157440185547e+00,-5.948994445800781250e+01
9.211147308349609375e+00,1.596266269683837891e+00,-5.957983016967773438e+01
3.551372528076171875e+00,1.078429508209228516e+01,-5.906368255615234375e+01
-9.592211842536926270e-01,1.399742221832275391e+01,-5.832987213134765625e+01
9.759740829467773438e+00,7.955074310302734375e+00,-5.640500640869140625e+01
1.217730617523193359e+01,2.484642744064331055e+00,-5.650417709350585938e+01
5.933517456054687500e+00,1.262056636810302734e+01,-5.593475723266601562e+01
9.576597809791564941e-01,1.616513442993164062e+01,-5.512525177001953125e+01
1.243429279327392578e+01,9.301670074462890625e+00,-5.294203186035156250e+01
1.506167221069335938e+01,3.356317043304443359e+00,-5.304979705810546875e+01
8.275950431823730469e+00,1.437214851379394531e+01,-5.243096923828125000e+01
2.868099212646484375e+00,1.822447013854980469e+01,-5.155118560791015625e+01
1.502571296691894531e+01,1.058609390258789062e+01,-4.912523269653320312e+01
1.784547042846679688e+01,4.205585956573486328e+00,-4.924090194702148438e+01
1.056298828125000000e+01,1.602770423889160156e+01,-4.857675552368164062e+01
4.759400367736816406e+00,2.016205978393554688e+01,-4.763260269165039062e+01
1.751678848266601562e+01,1.179979419708251953e+01,-4.498014831542968750e+01
2.051000022888183594e+01,5.026746749877929688e+00,-4.510292816162109375e+01
1.277949237823486328e+01,1.757621002197265625e+01,-4.439793014526367188e+01
6.618847846984863281e+00,2.196483039855957031e+01,-4.339567947387695312e+01
1.989046859741210938e+01,1.293439292907714844e+01,-4.053349304199218750e+01
2.303717231750488281e+01,5.814248561859130859e+00,-4.066258621215820312e+01
1.491047382354736328e+01,1.900688362121582031e+01,-3.992145538330078125e+01
8.433971405029296875e+00,2.362041854858398438e+01,-3.886781311035156250e+01
2.213130950927734375e+01,1.398256683349609375e+01,-3.581610488891601562e+01
2.541028594970703125e+01,6.562862873077392578e+00,-3.595060729980468750e+01
1.694161033630371094e+01,2.031047630310058594e+01,-3.517827224731445312e+01
1.019269752502441406e+01,2.511813354492187500e+01,-3.408031845092773438e+01
2.422406005859375000e+01,1.493732929229736328e+01,-3.085923194885253906e+01
2.761360740661621094e+01,7.267626285552978516e+00,-3.099828338623046875e+01
1.885971450805664062e+01,2.147837829589843750e+01,-3.019994926452636719e+01
1.188335990905761719e+01,2.644805145263671875e+01,-2.906499481201171875e+01
2.615449142456054688e+01,1.579192829132080078e+01,-2.569558334350585938e+01
2.963170433044433594e+01,7.923637390136718750e+00,-2.583821296691894531e+01
2.065122985839843750e+01,2.250229835510253906e+01,-2.501922225952148438e+01
1.349434947967529297e+01,2.760066986083984375e+01,-2.385490608215332031e+01
2.791026687622070312e+01,1.654095458984375000e+01,-2.036007308959960938e+01
3.145189094543457031e+01,8.526730537414550781e+00,-2.050533103942871094e+01
2.230488777160644531e+01,2.337585258483886719e+01,-1.967116165161132812e+01
1.501519298553466797e+01,2.856885147094726562e+01,-1.848524093627929688e+01
2.947948455810546875e+01,1.717949867248535156e+01,-1.488871097564697266e+01
3.306191253662109375e+01,9.072843551635742188e+00,-1.503563499450683594e+01
2.380940818786621094e+01,2.409317779541015625e+01,-1.419184112548828125e+01
1.643561172485351562e+01,2.934603881835937500e+01,-1.299223232269287109e+01
3.085093688964843750e+01,1.770285797119140625e+01,-9.317427635192871094e+00
3.445032119750976562e+01,9.558142662048339844e+00,-9.465070724487304688e+00
2.515430450439453125e+01,2.464907836914062500e+01,-8.617306709289550781e+00
1.774592590332031250e+01,2.992660140991210938e+01,-7.412074565887451172e+00
3.201630401611328125e+01,1.810795593261718750e+01,-3.683897495269775391e+00
3.560844039916992188e+01,9.979549407958984375e+00,-3.831236839294433594e+00
2.633109664916992188e+01,2.504020118713378906e+01,-2.985177040100097656e+00
1.893758201599121094e+01,3.030706024169921875e+01,-1.782357096672058105e+00
3.296780395507812500e+01,1.839198493957519531e+01,1.974245548248291016e+00
3.652870941162109375e+01,1.033429622650146484e+01,1.828184247016906738e+00
2.733194923400878906e+01,2.526392745971679688e+01,2.666910648345947266e+00
2.000276565551757812e+01,3.048511886596679688e+01,3.859252214431762695e+00
3.369826507568359375e+01,1.855281829833984375e+01,7.619141101837158203e+00
3.720399856567382812e+01,1.061973571777343750e+01,7.475361824035644531e+00
2.814960479736328125e+01,2.531843376159667969e+01,8.301090240478515625e+00
2.093373870849609375e+01,3.045862388610839844e+01,9.475018501281738281e+00
3.420347595214843750e+01,1.858959579467773438e+01,1.321319770812988281e+01
3.763076400756835938e+01,1.083423614501953125e+01,1.307261848449707031e+01
2.877916908264160156e+01,2.520368194580078125e+01,1.387985610961914062e+01
2.172500038146972656e+01,3.022886466979980469e+01,1.502746391296386719e+01
3.448015594482421875e+01,1.850217437744140625e+01,1.871884918212890625e+01
3.780599212646484375e+01,1.097631645202636719e+01,1.858243751525878906e+01
2.921636772155761719e+01,2.492055130004882812e+01,1.936577796936035156e+01
2.237095642089843750e+01,2.979691886901855469e+01,2.047943305969238281e+01
-1.480995941162109375e+01,-3.756497204303741455e-01,-6.816918182373046875e+01
-1.229882812500000000e+01,2.839582443237304688e+00,-6.776807403564453125e+01
-1.455663967132568359e+01,3.070464372634887695e+00,-6.729266357421875000e+01
-1.681480979919433594e+01,2.741779088973999023e+00,-6.677326965332031250e+01
-1.121965599060058594e+01,5.569516658782958984e+00,-6.654517364501953125e+01
-1.420649051666259766e+01,5.874938964843750000e+00,-6.591625976562500000e+01
-1.719381141662597656e+01,5.440147876739501953e+00,-6.522914886474609375e+01
-1.006548213958740234e+01,8.262253761291503906e+00,-6.487753295898437500e+01
-1.376141262054443359e+01,8.640247344970703125e+00,-6.409931182861328125e+01
-1.745791053771972656e+01,8.102193832397460938e+00,-6.324908447265625000e+01
-8.844112396240234375e+00,1.089980983734130859e+01,-6.277639389038085938e+01
-1.322438716888427734e+01,1.134782314300537109e+01,-6.185408020019531250e+01
-1.760536575317382812e+01,1.071010780334472656e+01,-6.084641647338867188e+01
-7.563364505767822266e+00,1.346433067321777344e+01,-6.025439834594726562e+01
-1.259867000579833984e+01,1.397919464111328125e+01,-5.919415283203125000e+01
-1.763477325439453125e+01,1.324617195129394531e+01,-5.803580474853515625e+01
-6.232109069824218750e+00,1.593883991241455078e+01,-5.732963562011718750e+01
-1.188877010345458984e+01,1.651729774475097656e+01,-5.613856124877929688e+01
-1.754632377624511719e+01,1.569376087188720703e+01,-5.483727264404296875e+01
-4.859130859375000000e+00,1.830680274963378906e+01,-5.402184295654296875e+01
-1.109942817687988281e+01,1.894497680664062500e+01,-5.270787811279296875e+01
-1.734065055847167969e+01,1.803653144836425781e+01,-5.127234268188476562e+01
-3.453712701797485352e+00,2.055206298828125000e+01,-5.035197448730468750e+01
-1.023569011688232422e+01,2.124562072753906250e+01,-4.892395401000976562e+01
-1.701871490478515625e+01,2.025825309753417969e+01,-4.736379623413085938e+01
-2.025147199630737305e+00,2.265991592407226562e+01,-4.634560394287109375e+01
