-1.988331031799316406e+01,-1.650677490234375000e+01,1.075140666961669922e+01
-2.772446250915527344e+01,-4.446155548095703125e+00,1.626707077026367188e+01
-2.479932594299316406e+01,-1.098219490051269531e+01,1.559857654571533203e+01
-2.059281921386718750e+01,-1.710295486450195312e+01,1.535916519165039062e+01
1.342076301574707031e+01,9.721821784973144531e+00,-5.762159347534179688e+01
1.530252647399902344e+01,8.670351982116699219e+00,-5.735729598999023438e+01
1.215187740325927734e+01,7.647029399871826172e+00,-5.734749603271484375e+01
1.369907569885253906e+01,6.572552204132080078e+00,-5.717641830444335938e+01
1.531143188476562500e+01,5.881578922271728516e+00,-5.690372467041015625e+01
1.098984718322753906e+01,5.866011142730712891e+00,-5.656338119506835938e+01
1.303663063049316406e+01,4.444597244262695312e+00,-5.633705902099609375e+01
1.516959667205810547e+01,3.530503988265991211e+00,-5.597631835937500000e+01
9.754367828369140625e+00,4.045806884765625000e+00,-5.540123367309570312e+01
1.228705501556396484e+01,2.286951065063476562e+00,-5.512118530273437500e+01
1.492638015747070312e+01,1.155812025070190430e+00,-5.467481231689453125e+01
8.453746795654296875e+00,2.198581457138061523e+00,-5.386891174316406250e+01
1.145537090301513672e+01,1.139891147613525391e-01,-5.353702926635742188e+01
1.458342742919921875e+01,-1.226527094841003418e+00,-5.300798797607421875e+01
7.096333503723144531e+00,3.365214467048645020e-01,-5.197541046142578125e+01
1.054688644409179688e+01,-2.059701442718505859e+00,-5.159386062622070312e+01
1.414269351959228516e+01,-3.600758552551269531e+00,-5.098572540283203125e+01
5.691603660583496094e+00,-1.527689576148986816e+00,-4.973463439941406250e+01
9.567897796630859375e+00,-4.219667911529541016e+00,-4.930602645874023438e+01
1.360747051239013672e+01,-5.950863838195800781e+00,-4.862283325195312500e+01
4.248854160308837891e+00,-3.381693363189697266e+00,-4.716165161132812500e+01
8.525053024291992188e+00,-6.351430416107177734e+00,-4.668883514404296875e+01
1.298135566711425781e+01,-8.261222839355468750e+00,-4.593516159057617188e+01
2.777539730072021484e+00,-5.213078975677490234e+00,-4.427230834960937500e+01
7.424952030181884766e+00,-8.440588951110839844e+00,-4.375844192504882812e+01
1.226814842224121094e+01,-1.051611709594726562e+01,-4.293931579589843750e+01
1.287673234939575195e+00,-7.009640216827392578e+00,-4.108714675903320312e+01
6.275375843048095703e+00,-1.047330760955810547e+01,-4.053561782836914062e+01
1.147297191619873047e+01,-1.270076942443847656e+01,-3.965656661987304688e+01
-2.107622474431991577e-01,-8.759324073791503906e+00,-3.762748718261718750e+01
5.083692550659179688e+00,-1.243611717224121094e+01,-3.704206085205078125e+01
1.060116291046142578e+01,-1.480071163177490234e+01,-3.610892105102539062e+01
-1.707712650299072266e+00,-1.045022869110107422e+01,-3.391560363769531250e+01
3.858058929443359375e+00,-1.431548500061035156e+01,-3.330018615722656250e+01
9.658288002014160156e+00,-1.680129432678222656e+01,-3.231923294067382812e+01
-3.193388223648071289e+00,-1.207140922546386719e+01,-2.997696304321289062e+01
2.606600046157836914e+00,-1.609925842285156250e+01,-2.933563423156738281e+01
8.650820732116699219e+00,-1.868955421447753906e+01,-2.831339836120605469e+01
-4.657644271850585938e+00,-1.361186313629150391e+01,-2.583818435668945312e+01
1.337773203849792480e+00,-1.777545547485351562e+01,-2.517525100708007812e+01
7.585612773895263672e+00,-2.045305442810058594e+01,-2.411858749389648438e+01
-6.090636730194091797e+00,-1.506102275848388672e+01,-2.152605819702148438e+01
5.999385565519332886e-02,-1.933246421813964844e+01,-2.084597587585449219e+01
6.469512939453125000e+00,-2.207933425903320312e+01,-1.976196289062500000e+01
-7.483043193817138672e+00,-1.640964698791503906e+01,-1.707010650634765625e+01
-1.218354821205139160e+00,-2.076016616821289062e+01,-1.637738418579101562e+01
5.310173034667968750e+00,-2.355806922912597656e+01,-1.527324962615966797e+01
-8.825374603271484375e+00,-1.764855384826660156e+01,-1.250009918212890625e+01
-2.488378524780273438e+00,-2.204933547973632812e+01,-1.179939174652099609e+01
4.115370273590087891e+00,-2.487948226928710938e+01,-1.068253803253173828e+01
-1.010854816436767578e+01,-1.876916122436523438e+01,-7.846290588378906250e+00
-3.741838693618774414e+00,-2.319062423706054688e+01,-7.142308235168457031e+00
2.892970561981201172e+00,-2.603404235839843750e+01,-6.020192146301269531e+00
-1.132420825958251953e+01,-1.976435470581054688e+01,-3.140055179595947266e+00
-4.970253467559814453e+00,-2.417694664001464844e+01,-2.437479972839355469e+00
1.651225924491882324e+00,-2.701453018188476562e+01,-1.317591428756713867e+00
-6.165409088134765625e+00,-2.500160408020019531e+01,2.283638477325439453e+00
3.984704315662384033e-01,-2.781463432312011719e+01,3.393756151199340820e+00
-1.352055549621582031e+01,-2.135227775573730469e+01,6.303746700286865234e+00
-7.319302082061767578e+00,-2.565872573852539062e+01,6.989459514617919922e+00
-8.569748997688293457e-01,-2.842821693420410156e+01,8.082405090332031250e+00
-1.448658084869384766e+01,-2.193439674377441406e+01,1.097824478149414062e+01
-8.424262046813964844e+00,-2.614451789855957031e+01,1.164855957031250000e+01
-2.106691122055053711e+00,-2.885186004638671875e+01,1.271704959869384766e+01
-1.535583972930908203e+01,-2.236995887756347656e+01,1.557927894592285156e+01
-9.472910881042480469e+00,-2.645543670654296875e+01,1.622977256774902344e+01
-3.342311620712280273e+00,-2.908266448974609375e+01,1.726663589477539062e+01
1.708114814758300781e+01,8.641912460327148438e+00,-5.689489746093750000e+01
1.687904739379882812e+01,5.634377479553222656e+00,-5.654509735107421875e+01
1.829781150817871094e+01,5.833817481994628906e+00,-5.612734222412109375e+01
1.947170066833496094e+01,6.466372013092041016e+00,-5.567873764038085938e+01
1.724337196350097656e+01,3.203498601913452148e+00,-5.550189590454101562e+01
1.912025070190429688e+01,3.467329263687133789e+00,-5.494924926757812500e+01
2.067317771911621094e+01,4.304144859313964844e+00,-5.435578918457031250e+01
1.749245643615722656e+01,7.512205839157104492e-01,-5.408775711059570312e+01
1.981490707397460938e+01,1.077683925628662109e+00,-5.340391159057617188e+01
2.173651123046875000e+01,2.113128423690795898e+00,-5.266957092285156250e+01
1.762468719482421875e+01,-1.706121206283569336e+00,-5.231223678588867188e+01
2.037713050842285156e+01,-1.319129347801208496e+00,-5.150176239013671875e+01
2.265462684631347656e+01,-9.202316403388977051e-02,-5.063143920898437500e+01
1.763870620727539062e+01,-4.151974201202392578e+00,-5.018592071533203125e+01
2.080284309387207031e+01,-3.707258939743041992e+00,-4.925425720214843750e+01
2.342082595825195312e+01,-2.296556711196899414e+00,-4.825378799438476562e+01
1.753494262695312500e+01,-6.570154666900634766e+00,-4.772432708740234375e+01
2.108945846557617188e+01,-6.070460796356201172e+00,-4.667769622802734375e+01
2.403050231933593750e+01,-4.485680580139160156e+00,-4.555376815795898438e+01
1.731399345397949219e+01,-8.944398880004882812e+00,-4.494396591186523438e+01
2.123520851135253906e+01,-8.393112182617187500e+00,-4.378934860229492188e+01
2.447972869873046875e+01,-6.644917488098144531e+00,-4.254947280883789062e+01
1.697695922851562500e+01,-1.125868129730224609e+01,-4.186207962036132812e+01
2.123857688903808594e+01,-1.065956878662109375e+01,-4.060723495483398438e+01
2.476468467712402344e+01,-8.759524345397949219e+00,-3.925972366333007812e+01
1.652633476257324219e+01,-1.349760913848876953e+01,-3.850049591064453125e+01
2.110003089904785156e+01,-1.285480499267578125e+01,-3.715379714965820312e+01
2.488414382934570312e+01,-1.081556987762451172e+01,-3.570765304565429688e+01
1.596551418304443359e+01,-1.564653873443603516e+01,-3.488169097900390625e+01
2.082047843933105469e+01,-1.496409225463867188e+01,-3.345214843750000000e+01
2.483744049072265625e+01,-1.279945564270019531e+01,-3.191703796386718750e+01
1.529754257202148438e+01,-1.769043159484863281e+01,-3.102910423278808594e+01
2.040129280090332031e+01,-1.697296524047851562e+01,-2.952629852294921875e+01
2.462422943115234375e+01,-1.469750308990478516e+01,-2.791250991821289062e+01
1.452731227874755859e+01,-1.961618041992187500e+01,-2.696901321411132812e+01
1.984584999084472656e+01,-1.886858940124511719e+01,-2.540297889709472656e+01
2.424636650085449219e+01,-1.649729919433593750e+01,-2.372129631042480469e+01
1.366006660461425781e+01,-2.141085624694824219e+01,-2.272890472412109375e+01
1.915780448913574219e+01,-2.063804435729980469e+01,-2.111009788513183594e+01
2.370657348632812500e+01,-1.818686485290527344e+01,-1.937176132202148438e+01
1.270116233825683594e+01,-2.306194114685058594e+01,-1.833632278442382812e+01
1.834121704101562500e+01,-2.226906013488769531e+01,-1.667559623718261719e+01
2.300781250000000000e+01,-1.975451087951660156e+01,-1.489225769042968750e+01
1.165752220153808594e+01,-2.455888938903808594e+01,-1.382113265991210938e+01
1.740219306945800781e+01,-2.375144386291503906e+01,-1.212963485717773438e+01
2.215528869628906250e+01,-2.119014549255371094e+01,-1.031320953369140625e+01
1.053585052490234375e+01,-2.589182472229003906e+01,-9.213688850402832031e+00
1.634681892395019531e+01,-2.507501029968261719e+01,-7.502658843994140625e+00
2.115473747253417969e+01,-2.248418617248535156e+01,-5.665285587310791016e+00
9.343656539916992188e+00,-2.705118751525878906e+01,-4.544441699981689453e+00
1.518185997009277344e+01,-2.623049354553222656e+01,-2.825380563735961914e+00
2.001237297058105469e+01,-2.362750434875488281e+01,-9.793756008148193359e-01
8.088980674743652344e+00,-2.802976417541503906e+01,1.551722437143325806e-01
1.391549205780029297e+01,-2.721072959899902344e+01,1.870787382125854492e+00
1.873623275756835938e+01,-2.461288452148437500e+01,3.713084697723388672e+00
6.780195236206054688e+00,-2.882089805603027344e+01,4.853731632232666016e+00
1.255607604980468750e+01,-2.800906181335449219e+01,6.554420471191406250e+00
1.733499526977539062e+01,-2.543390274047851562e+01,8.380702972412109375e+00
5.426021575927734375e+00,-2.941893005371093750e+01,9.519790649414062500e+00
1.111252689361572266e+01,-2.861968231201171875e+01,1.119415760040283203e+01
1.581747055053710938e+01,-2.608434486389160156e+01,1.299217891693115234e+01
4.035587310791015625e+00,-2.982050132751464844e+01,1.412221622467041016e+01
9.594657897949218750e+00,-2.903899383544921875e+01,1.575909805297851562e+01
1.419431495666503906e+01,-2.656056785583496094e+01,1.751684379577636719e+01
2.618180274963378906e+00,-3.002262496948242188e+01,1.863021850585937500e+01
8.012764930725097656e+00,-2.926431083679199219e+01,2.021865272521972656e+01
1.247625637054443359e+01,-2.685919952392578125e+01,2.192437553405761719e+01
1.828035354614257812e+01,9.635466575622558594e+00,-5.636013031005859375e+01
1.858232498168945312e+01,1.138769912719726562e+01,-5.589471435546875000e+01
2.031131362915039062e+01,7.502026081085205078e+00,-5.522945022583007812e+01
2.077055931091308594e+01,8.858535766601562500e+00,-5.480973434448242188e+01
2.081832695007324219e+01,1.044409847259521484e+01,-5.444800186157226562e+01
2.178391075134277344e+01,5.674198150634765625e+00,-5.376142883300781250e+01
2.239143562316894531e+01,7.468723773956298828e+00,-5.320618820190429688e+01
2.245463943481445312e+01,9.566238403320312500e+00,-5.272765350341796875e+01
2.311090278625488281e+01,3.808451175689697266e+00,-5.193410873413085938e+01
2.386265563964843750e+01,6.028995990753173828e+00,-5.124705505371093750e+01
2.394090461730957031e+01,8.624439239501953125e+00,-5.065491104125976562e+01
2.428345489501953125e+01,1.917301654815673828e+00,-4.975978851318359375e+01
2.517447662353515625e+01,4.548956871032714844e+00,-4.894551086425781250e+01
2.526713562011718750e+01,7.625036716461181641e+00,-4.824373626708984375e+01
2.529330635070800781e+01,1.313716359436511993e-02,-4.725179672241210938e+01
2.631744194030761719e+01,3.038448333740234375e+00,-4.631575775146484375e+01
2.642404556274414062e+01,6.574470043182373047e+00,-4.550902557373046875e+01
2.613404464721679688e+01,-1.890968799591064453e+00,-4.442813110351562500e+01
2.728464317321777344e+01,1.507574319839477539e+00,-4.337658691406250000e+01
2.740435791015625000e+01,5.480000972747802734e+00,-4.247030258178710938e+01
2.680021667480468750e+01,-3.782445430755615234e+00,-4.130770874023437500e+01
2.806955718994140625e+01,-3.330260887742042542e-02,-4.014767074584960938e+01
2.820162391662597656e+01,4.348928451538085938e+00,-3.914789199829101562e+01
2.728668785095214844e+01,-5.648645401000976562e+00,-3.791016387939453125e+01
2.866619110107421875e+01,-1.574030637741088867e+00,-3.664942932128906250e+01
2.880965232849121094e+01,3.188691616058349609e+00,-3.556286239624023438e+01
2.759084320068359375e+01,-7.477098464965820312e+00,-3.425930786132812500e+01
2.907118797302246094e+01,-3.104066371917724609e+00,-3.290629196166992188e+01
2.922520637512207031e+01,2.007142305374145508e+00,-3.174020576477050781e+01
2.771061515808105469e+01,-9.255541801452636719e+00,-3.037958908081054688e+01
2.928210639953613281e+01,-4.613602161407470703e+00,-2.894334030151367188e+01
2.944565391540527344e+01,8.121450543403625488e-01,-2.770548057556152344e+01
2.764456367492675781e+01,-1.097183990478515625e+01,-2.629626274108886719e+01
2.929663276672363281e+01,-6.092040538787841797e+00,-2.478640556335449219e+01
2.946859359741210938e+01,-3.882489800453186035e-01,-2.348510360717773438e+01
2.739384841918945312e+01,-1.261499500274658203e+01,-2.203705406188964844e+01
2.911537361145019531e+01,-7.529819011688232422e+00,-2.046366882324218750e+01
2.929448890686035156e+01,-1.586060285568237305e+00,-1.910764122009277344e+01
2.696009445190429688e+01,-1.417376422882080078e+01,-1.763077545166015625e+01
2.873965644836425781e+01,-8.917258262634277344e+00,-1.600437164306640625e+01
2.892484283447265625e+01,-2.773278713226318359e+00,-1.460265445709228516e+01
2.634548950195312500e+01,-1.563743591308593750e+01,-1.310620307922363281e+01
2.817117881774902344e+01,-1.024487018585205078e+01,-1.143768310546875000e+01
2.836114120483398438e+01,-3.941891670227050781e+00,-9.999695777893066406e+00
2.555496788024902344e+01,-1.699678421020507812e+01,-8.494017601013183594e+00
2.741438484191894531e+01,-1.150416564941406250e+01,-6.794579982757568359e+00
2.760790061950683594e+01,-5.084168910980224609e+00,-5.329887866973876953e+00
2.459361457824707031e+01,-1.824245452880859375e+01,-3.825114965438842773e+00
2.647453689575195312e+01,-1.268645572662353516e+01,-2.106053590774536133e+00
2.667029380798339844e+01,-6.192492961883544922e+00,-6.244839429855346680e-01
2.346739959716796875e+01,-1.936583709716796875e+01,8.694401383399963379e-01
2.535718917846679688e+01,-1.378380870819091797e+01,2.596570253372192383e+00
2.555382728576660156e+01,-7.259286880493164062e+00,4.085101127624511719e+00
2.218438911437988281e+01,-2.035986137390136719e+01,5.558187007904052734e+00
2.407037925720214844e+01,-1.478900814056396484e+01,7.281854629516601562e+00
2.426649665832519531e+01,-8.277542114257812500e+00,8.767373085021972656e+00
2.075309371948242188e+01,-2.121774864196777344e+01,1.020976638793945312e+01
2.262261390686035156e+01,-1.569528865814208984e+01,1.191843795776367188e+01
2.281715583801269531e+01,-9.240519523620605469e+00,1.339105701446533203e+01
1.918269729614257812e+01,-2.193346214294433594e+01,1.479293727874755859e+01
2.102326393127441406e+01,-1.649645233154296875e+01,1.647516441345214844e+01
2.121478080749511719e+01,-1.014153861999511719e+01,1.792499732971191406e+01
1.748406219482421875e+01,-2.250254058837890625e+01,1.927726745605468750e+01
1.928354835510253906e+01,-1.718740653991699219e+01,2.092183303833007812e+01
1.947066116333007812e+01,-1.097479915618896484e+01,2.233916854858398438e+01
1.566866874694824219e+01,-2.292131423950195312e+01,2.363269615173339844e+01
1.741484451293945312e+01,-1.776343536376953125e+01,2.522858619689941406e+01
1.759643173217773438e+01,-1.173469734191894531e+01,2.660397720336914062e+01
1.789769554138183594e+01,1.343100643157958984e+01,-5.562516784667968750e+01
2.043812370300292969e+01,1.215592288970947266e+01,-5.417123413085937500e+01
1.966881370544433594e+01,1.387488937377929688e+01,-5.399542236328125000e+01
2.195166015625000000e+01,1.183079147338867188e+01,-5.236152648925781250e+01
2.093395233154296875e+01,1.410480499267578125e+01,-5.212894439697265625e+01
2.331847763061523438e+01,1.142659950256347656e+01,-5.020187759399414062e+01
2.205916595458984375e+01,1.424046039581298828e+01,-4.991407775878906250e+01
2.452952957153320312e+01,1.094606590270996094e+01,-4.770679092407226562e+01
2.303697586059570312e+01,1.428093910217285156e+01,-4.736572647094726562e+01
2.557605743408203125e+01,1.039212226867675781e+01,-4.489181137084960938e+01
2.386041641235351562e+01,1.422573852539062500e+01,-4.449970245361328125e+01
2.645176124572753906e+01,9.768789291381835938e+00,-4.177690505981445312e+01
2.452433967590332031e+01,1.407542800903320312e+01,-4.133643722534179688e+01
2.715075302124023438e+01,9.080156326293945312e+00,-3.838296508789062500e+01
2.502445030212402344e+01,1.383110427856445312e+01,-3.789706420898437500e+01
2.766761589050292969e+01,8.330669403076171875e+00,-3.473150634765625000e+01
2.535675811767578125e+01,1.349403762817382812e+01,-3.420341873168945312e+01
2.799954605102539062e+01,7.525393009185791016e+00,-3.084802818298339844e+01
2.551964378356933594e+01,1.306680011749267578e+01,-3.028123855590820312e+01
2.814451408386230469e+01,6.670013427734375000e+00,-2.675840759277343750e+01
2.551199150085449219e+01,1.255224609375000000e+01,-2.615678215026855469e+01
2.810074043273925781e+01,5.769829273223876953e+00,-2.248950004577636719e+01
2.533327102661132812e+01,1.195350742340087891e+01,-2.185705375671386719e+01
2.786917304992675781e+01,4.831048011779785156e+00,-1.807014083862304688e+01
2.498530769348144531e+01,1.127493381500244141e+01,-1.741106605529785156e+01
2.745147514343261719e+01,3.860017299652099609e+00,-1.353021049499511719e+01
2.447040939331054688e+01,1.052103424072265625e+01,-1.284893417358398438e+01
2.684966278076171875e+01,2.863054990768432617e+00,-8.899496078491210938e+00
2.379136466979980469e+01,9.696526527404785156e+00,-8.200595855712890625e+00
2.606832885742187500e+01,1.847134709358215332e+00,-4.209266662597656250e+00
2.295344734191894531e+01,8.807302474975585938e+00,-3.497376680374145508e+00
2.511297607421875000e+01,8.186736702919006348e-01,5.090472698211669922e-01
2.196209526062011719e+01,7.859185218811035156e+00,1.229143500328063965e+00
2.398922348022460938e+01,-2.151512503623962402e-01,5.223972797393798828e+00
2.082352066040039062e+01,6.858380794525146484e+00,5.947434902191162109e+00
2.270515632629394531e+01,-1.247581243515014648e+00,9.903984069824218750e+00
1.954581069946289062e+01,5.811778068542480469e+00,1.062600040435791016e+01
2.126926994323730469e+01,-2.271687269210815430e+00,1.451775074005126953e+01
1.813746261596679688e+01,4.726296424865722656e+00,1.523350811004638672e+01
1.969085693359375000e+01,-3.280526638031005859e+00,1.903426361083984375e+01
1.660753440856933594e+01,3.609159946441650391e+00,1.973894882202148438e+01
1.798098564147949219e+01,-4.267495155334472656e+00,2.342361259460449219e+01
1.496658992767333984e+01,2.467861652374267578e+00,2.411247634887695312e+01
1.615083312988281250e+01,-5.225897312164306641e+00,2.765632438659667969e+01
1.322569751739501953e+01,1.310141801834106445e+00,2.832481765747070312e+01
1.591486549377441406e+01,1.330001258850097656e+01,-6.039893722534179688e+01
1.768815994262695312e+01,1.676131439208984375e+01,-5.826712799072265625e+01
1.519483470916748047e+01,1.815451240539550781e+01,-5.861732482910156250e+01
1.877242660522460938e+01,1.901150131225585938e+01,-5.636469650268554688e+01
2.059737205505371094e+01,1.717609024047851562e+01,-5.628799057006835938e+01
1.672240638732910156e+01,2.043518257141113281e+01,-5.659136962890625000e+01
1.458605384826660156e+01,2.135073089599609375e+01,-5.695268249511718750e+01
1.948135948181152344e+01,2.067706298828125000e+01,-5.425092697143554688e+01
2.189558219909667969e+01,1.824902725219726562e+01,-5.414944839477539062e+01
1.676941299438476562e+01,2.256044387817382812e+01,-5.455078887939453125e+01
1.394325065612792969e+01,2.377167510986328125e+01,-5.502875137329101562e+01
2.006015014648437500e+01,2.220449447631835938e+01,-5.177456665039062500e+01
2.304748153686523438e+01,1.920002174377441406e+01,-5.164900970458984375e+01
1.670434379577636719e+01,2.453495788574218750e+01,-5.214563369750976562e+01
1.320727062225341797e+01,2.603368568420410156e+01,-5.273707199096679688e+01
2.050490188598632812e+01,2.358355903625488281e+01,-4.895225524902343750e+01
2.404538536071777344e+01,2.002272796630859375e+01,-4.880345916748046875e+01
1.652771949768066406e+01,2.634551620483398438e+01,-4.939203643798828125e+01
1.238302612304687500e+01,2.812189483642578125e+01,-5.009298324584960938e+01
2.081210708618164062e+01,2.480444145202636719e+01,-4.580178451538085938e+01
2.488204956054687500e+01,2.071116828918457031e+01,-4.563072204589843750e+01
1.624022674560546875e+01,2.797953033447265625e+01,-4.630729293823242188e+01
1.147578239440917969e+01,3.002134513854980469e+01,-4.711309051513671875e+01
2.098029518127441406e+01,2.585963439941406250e+01,-4.234512710571289062e+01
2.555244255065917969e+01,2.126120758056640625e+01,-4.215297317504882812e+01
1.584422302246093750e+01,2.942648124694824219e+01,-4.291303253173828125e+01
1.049182415008544922e+01,3.172023963928222656e+01,-4.381827163696289062e+01
2.100826835632324219e+01,2.674199867248535156e+01,-3.860554885864257812e+01
2.605212783813476562e+01,2.166921043395996094e+01,-3.839355468750000000e+01
1.534226226806640625e+01,3.067683982849121094e+01,-3.923205566406250000e+01
9.437761306762695312e+00,3.320720672607421875e+01,-4.023067092895507812e+01
2.089541435241699219e+01,2.744510078430175781e+01,-3.460726547241210938e+01
2.637710762023925781e+01,2.193189811706542969e+01,-3.437688446044921875e+01
1.473758220672607422e+01,3.172150993347167969e+01,-3.528815078735351562e+01
8.320451736450195312e+00,3.447157669067382812e+01,-3.637346267700195312e+01
2.064289093017578125e+01,2.796477127075195312e+01,-3.037769508361816406e+01
2.652585983276367188e+01,2.204805755615234375e+01,-3.013043403625488281e+01
1.403433036804199219e+01,3.255418395996093750e+01,-3.110842132568359375e+01
7.147529602050781250e+00,3.550562667846679688e+01,-3.227314758300781250e+01
2.025245857238769531e+01,2.829759216308593750e+01,-2.594510650634765625e+01
2.649733924865722656e+01,2.201686859130859375e+01,-2.568264007568359375e+01
1.323729515075683594e+01,3.316938018798828125e+01,-2.672079277038574219e+01
5.926851749420166016e+00,3.630231094360351562e+01,-2.795718383789062500e+01
1.972626495361328125e+01,2.844070816040039062e+01,-2.133854103088378906e+01
2.629125595092773438e+01,2.183814239501953125e+01,-2.106259727478027344e+01
1.235162353515625000e+01,3.356222534179687500e+01,-2.215395545959472656e+01
4.666424274444580078e+00,3.685569381713867188e+01,-2.345374298095703125e+01
1.906834602355957031e+01,2.839383316040039062e+01,-1.658944702148437500e+01
2.590944671630859375e+01,2.151345252990722656e+01,-1.630192565917968750e+01
1.138333129882812500e+01,3.373071670532226562e+01,-1.743922042846679688e+01
3.374841213226318359e+00,3.716278076171875000e+01,-1.879367446899414062e+01
1.828279876708984375e+01,2.815716552734375000e+01,-1.172946453094482422e+01
2.535447311401367188e+01,2.104497909545898438e+01,-1.143223190307617188e+01
1.033905029296875000e+01,3.367384719848632812e+01,-1.260782051086425781e+01
2.060676336288452148e+00,3.722156906127929688e+01,-1.400791931152343750e+01
1.737479019165039062e+01,2.773175239562988281e+01,-6.790898323059082031e+00
2.462949180603027344e+01,2.043539428710937500e+01,-6.485992908477783203e+00
9.225366592407226562e+00,3.339122772216796875e+01,-7.692004680633544922e+00
7.327155470848083496e-01,3.703085708618164062e+01,-9.128326416015625000e+00
1.635073280334472656e+01,2.712095451354980469e+01,-1.806789994239807129e+00
2.373992538452148438e+01,1.968925285339355469e+01,-1.496250033378601074e+00
8.050086021423339844e+00,3.288545608520507812e+01,-2.724616289138793945e+00
-6.001793742179870605e-01,3.659263992309570312e+01,-4.187592506408691406e+00
1.521741485595703125e+01,2.632902908325195312e+01,3.189220190048217773e+00
2.269179725646972656e+01,1.881160163879394531e+01,3.503330230712890625e+00
6.821025371551513672e+00,3.215995407104492188e+01,2.260792493820190430e+00
-1.929007411003112793e+00,3.590985870361328125e+01,7.809349894523620605e-01
1.398195743560791016e+01,2.536052513122558594e+01,8.163874626159667969e+00
2.149153709411621094e+01,1.780783462524414062e+01,8.479494094848632812e+00
5.546153068542480469e+00,3.121891975402832031e+01,7.231110572814941406e+00
-3.244934558868408203e+00,3.498643875122070312e+01,5.744314193725585938e+00
1.265310573577880859e+01,2.422260475158691406e+01,1.308399963378906250e+01
2.014761734008789062e+01,1.668502998352050781e+01,1.339897727966308594e+01
4.234241485595703125e+00,3.006920814514160156e+01,1.215310287475585938e+01
-4.539164543151855469e+00,3.382909011840820312e+01,1.066928386688232422e+01
1.123979187011718750e+01,2.292276573181152344e+01,1.791671371459960938e+01
1.866911697387695312e+01,1.545077514648437500e+01,1.822895622253417969e+01
2.894084453582763672e+00,2.871848869323730469e+01,1.699388885498046875e+01
-5.803076267242431641e+00,3.244581985473632812e+01,1.552299213409423828e+01
9.751050949096679688e+00,2.146935844421386719e+01,2.262930488586425781e+01
1.706540489196777344e+01,1.411289310455322266e+01,2.293669319152832031e+01
1.534466743469238281e+00,2.717540740966796875e+01,2.172075653076171875e+01
-7.028061866760253906e+00,3.084482192993164062e+01,2.027258300781250000e+01
8.197132110595703125e+00,1.987237548828125000e+01,2.719070434570312500e+01
1.534769439697265625e+01,1.268073558807373047e+01,2.749122810363769531e+01
1.646343320608139038e-01,2.545063972473144531e+01,2.630252456665039062e+01
-8.206127166748046875e+00,2.903801536560058594e+01,2.488681411743164062e+01
6.588472843170166016e+00,1.814265823364257812e+01,3.157033348083496094e+01
1.352741146087646484e+01,1.116382980346679688e+01,3.186195755004882812e+01
-1.206331491470336914e+00,2.355586814880371094e+01,3.070843887329101562e+01
-9.329312324523925781e+00,2.703697013854980469e+01,2.933461570739746094e+01
1.283817195892333984e+01,1.819218826293945312e+01,-5.922999954223632812e+01
1.250898456573486328e+01,2.167825317382812500e+01,-5.742786026000976562e+01
1.062914085388183594e+01,2.141398239135742188e+01,-5.798138427734375000e+01
9.073734283447265625e+00,2.057586669921875000e+01,-5.857578277587890625e+01
1.119552707672119141e+01,2.420488739013671875e+01,-5.565737152099609375e+01
8.708707809448242188e+00,2.385527610778808594e+01,-5.638962173461914062e+01
6.651053905487060547e+00,2.274656295776367188e+01,-5.717594909667968750e+01
9.807249069213867188e+00,2.656978225708007812e+01,-5.351491546630859375e+01
6.730003833770751953e+00,2.613723564147949219e+01,-5.442100143432617188e+01
4.183897018432617188e+00,2.476527214050292969e+01,-5.539400100708007812e+01
8.353377342224121094e+00,2.875716209411621094e+01,-5.101489257812500000e+01
4.706329345703125000e+00,2.824455261230468750e+01,-5.208874893188476562e+01
1.688778162002563477e+00,2.661851310729980469e+01,-5.324192047119140625e+01
6.843546867370605469e+00,3.075179672241210938e+01,-4.817281723022460938e+01
2.651196479797363281e+00,3.016238784790039062e+01,-4.940727615356445312e+01
-8.176253437995910645e-01,2.829324531555175781e+01,-5.073288345336914062e+01
5.287942886352539062e+00,3.254085922241210938e+01,-4.500876998901367188e+01
5.782248973846435547e-01,3.187877845764160156e+01,-4.639555358886718750e+01
-3.318614244461059570e+00,2.977892684936523438e+01,-4.788475036621093750e+01
3.697099447250366211e+00,3.411246871948242188e+01,-4.154397201538085938e+01
-1.498571634292602539e+00,3.338210678100585938e+01,-4.307383728027343750e+01
-5.797463417053222656e+00,3.106567573547363281e+01,-4.471665954589843750e+01
2.081388711929321289e+00,3.545541763305664062e+01,-3.780078506469726562e+01
-3.565277576446533203e+00,3.466164779663085938e+01,-3.946345138549804688e+01
-8.237320899963378906e+00,3.214406204223632812e+01,-4.124889373779296875e+01
4.518497586250305176e-01,3.656137084960937500e+01,-3.380495452880859375e+01
-5.608131885528564453e+00,3.570951080322265625e+01,-3.558931732177734375e+01
-1.062219905853271484e+01,3.300770950317382812e+01,-3.750544738769531250e+01
-1.180728912353515625e+00,3.742307281494140625e+01,-2.958320426940917969e+01
-7.613559722900390625e+00,3.651879882812500000e+01,-3.147735404968261719e+01
-1.293607902526855469e+01,3.365076065063476562e+01,-3.351136398315429688e+01
-2.805527687072753906e+00,3.803398513793945312e+01,-2.516310691833496094e+01
-9.567977905273437500e+00,3.708327865600585938e+01,-2.715433311462402344e+01
-1.516335010528564453e+01,3.406833648681640625e+01,-2.929258918762207031e+01
-4.411419868469238281e+00,3.839058303833007812e+01,-2.057495498657226562e+01
-1.145851802825927734e+01,3.740005874633789062e+01,-2.264995193481445312e+01
-1.728919219970703125e+01,3.425818252563476562e+01,-2.487816047668457031e+01
-5.987979888916015625e+00,3.849074935913085938e+01,-1.584922885894775391e+01
-1.327230834960937500e+01,3.746674728393554688e+01,-1.799410629272460938e+01
-1.929952049255371094e+01,3.421907806396484375e+01,-2.029739761352539062e+01
-7.524257183074951172e+00,3.833280563354492188e+01,-1.101731109619140625e+01
-1.499719429016113281e+01,3.728233718872070312e+01,-1.321771430969238281e+01
-2.118037986755371094e+01,3.395050811767578125e+01,-1.558063602447509766e+01
-9.010387420654296875e+00,3.791874313354492188e+01,-6.111635684967041016e+00
-1.662199592590332031e+01,3.684877395629882812e+01,-8.352872848510742188e+00
-2.291979408264160156e+01,3.345509338378906250e+01,-1.075961399078369141e+01
-1.043622398376464844e+01,3.725129318237304688e+01,-1.165292978286743164e+00
-1.813564109802246094e+01,3.616905212402343750e+01,-3.432368993759155273e+00
-2.450603485107421875e+01,3.273619842529296875e+01,-5.866865158081054688e+00
-1.179205989837646484e+01,3.633414840698242188e+01,3.788951635360717773e+00
-1.952760124206542969e+01,3.524672317504882812e+01,1.511215090751647949e+00
-2.592802238464355469e+01,3.179784774780273438e+01,-9.347208142280578613e-01
-1.306910991668701172e+01,3.517414855957031250e+01,8.717864990234375000e+00
-2.078912162780761719e+01,3.408893966674804688e+01,6.444707393646240234e+00
-2.717669296264648438e+01,3.064694213867187500e+01,4.003672599792480469e+00
-1.425886917114257812e+01,3.377906036376953125e+01,1.358850955963134766e+01
-2.191181373596191406e+01,3.270335769653320312e+01,1.133511924743652344e+01
-2.824382781982421875e+01,2.929132270812988281e+01,8.915319442749023438e+00
-1.535300254821777344e+01,3.215764999389648438e+01,1.836808395385742188e+01
-2.288754272460937500e+01,3.109860038757324219e+01,1.614955902099609375e+01
-2.912154769897460938e+01,2.773925399780273438e+01,1.376718711853027344e+01
-1.634459304809570312e+01,3.032129478454589844e+01,2.302494430541992188e+01
-2.371031379699707031e+01,2.928590774536132812e+01,2.085611343383789062e+01
-2.980473899841308594e+01,2.600188636779785156e+01,1.852710723876953125e+01
-1.722689056396484375e+01,2.828235054016113281e+01,2.752787399291992188e+01
-2.437464714050292969e+01,2.727759170532226562e+01,2.542321968078613281e+01
-3.028870010375976562e+01,2.409073257446289062e+01,2.316313552856445312e+01
1.124924087524414062e+01,1.687574386596679688e+01,-5.993856048583984375e+01
1.084912586212158203e+01,1.455404663085937500e+01,-6.055523300170898438e+01
7.961264133453369141e+00,1.920361900329589844e+01,-5.917108535766601562e+01
7.352756500244140625e+00,1.740626335144042969e+01,-5.972720718383789062e+01
7.289450168609619141e+00,1.530541896820068359e+01,-6.020650100708007812e+01
5.179395198822021484e+00,2.093120384216308594e+01,-5.796347045898437500e+01
4.374398231506347656e+00,1.855351066589355469e+01,-5.869915771484375000e+01
4.290589332580566406e+00,1.577434539794921875e+01,-5.933322143554687500e+01
2.362833023071289062e+00,2.251898956298828125e+01,-5.636848068237304688e+01
1.366779685020446777e+00,1.957676506042480469e+01,-5.727882385253906250e+01
1.263117790222167969e+00,1.613783073425292969e+01,-5.806340026855468750e+01
-4.695186316967010498e-01,2.395630836486816406e+01,-5.439684677124023438e+01
-1.649977445602416992e+00,2.046927833557128906e+01,-5.547574615478515625e+01
-1.772940635681152344e+00,1.639352798461914062e+01,-5.640563964843750000e+01
-3.298621892929077148e+00,2.523290061950683594e+01,-5.206051254272460938e+01
-4.655736446380615234e+00,2.122452163696289062e+01,-5.330076217651367188e+01
-4.796902656555175781e+00,1.653925704956054688e+01,-5.436966705322265625e+01
-6.105817317962646484e+00,2.634098052978515625e+01,-4.937620925903320312e+01
-7.630345344543457031e+00,2.183792495727539062e+01,-5.076950073242187500e+01
-7.788905620574951172e+00,1.657446479797363281e+01,-5.197031021118164062e+01
-8.872163772583007812e+00,2.727300834655761719e+01,-4.636198806762695312e+01
-1.055395984649658203e+01,2.230531692504882812e+01,-4.789903259277343750e+01
-1.072888088226318359e+01,1.649893379211425781e+01,-4.922370529174804688e+01
-1.157899188995361328e+01,2.802220153808593750e+01,-4.303705596923828125e+01
-1.340678596496582031e+01,2.262330436706542969e+01,-4.470752334594726562e+01
-1.359690856933593750e+01,1.631281661987304688e+01,-4.614720535278320312e+01
-1.420841693878173828e+01,2.858408355712890625e+01,-3.942449188232421875e+01
-1.616998672485351562e+01,2.279000663757324219e+01,-4.121723175048828125e+01
-1.637412452697753906e+01,1.601769256591796875e+01,-4.276230239868164062e+01
-1.674293899536132812e+01,2.895501136779785156e+01,-3.554847335815429688e+01
-1.882520103454589844e+01,2.280444526672363281e+01,-3.745151138305664062e+01
-1.904182243347167969e+01,1.561550331115722656e+01,-3.909161376953125000e+01
-1.916524314880371094e+01,2.913184356689453125e+01,-3.143409919738769531e+01
-2.135429382324218750e+01,2.266613960266113281e+01,-3.343467330932617188e+01
-2.158195114135742188e+01,1.510864067077636719e+01,-3.515884017944335938e+01
-2.145952224731445312e+01,2.911412239074707031e+01,-2.710976028442382812e+01
-2.374051666259765625e+01,2.237622261047363281e+01,-2.919449806213378906e+01
-2.397780609130859375e+01,1.450082778930664062e+01,-3.099120521545410156e+01
-2.361031532287597656e+01,2.890160369873046875e+01,-2.260419654846191406e+01
-2.596822547912597656e+01,2.193690681457519531e+01,-2.475914192199707031e+01
-2.621350860595703125e+01,1.379611206054687500e+01,-2.661639785766601562e+01
-2.560284423828125000e+01,2.849544525146484375e+01,-1.794715690612792969e+01
-2.802176094055175781e+01,2.135040855407714844e+01,-2.015788841247558594e+01
-2.827347183227539062e+01,1.299892807006835938e+01,-2.206323051452636719e+01
-2.742432212829589844e+01,2.789893531799316406e+01,-1.317001914978027344e+01
-2.988813209533691406e+01,2.062131118774414062e+01,-1.542177581787109375e+01
-3.014452362060546875e+01,1.211484336853027344e+01,-1.736248207092285156e+01
-2.906254196166992188e+01,2.711600303649902344e+01,-8.305068016052246094e+00
-3.155470466613769531e+01,1.975441169738769531e+01,-1.058278560638427734e+01
-3.181401443481445312e+01,1.114981746673583984e+01,-1.254586791992187500e+01
-3.050584793090820312e+01,2.615113067626953125e+01,-3.384381294250488281e+00
-3.300981140136718750e+01,1.875502014160156250e+01,-5.672808647155761719e+00
-3.327035903930664062e+01,1.011006450653076172e+01,-7.645105361938476562e+00
-3.174537086486816406e+01,2.501157188415527344e+01,1.558920741081237793e+00
-3.424427795410156250e+01,1.763030242919921875e+01,-7.249059677124023438e-01
-3.450424194335937500e+01,9.002711296081542969e+00,-2.693224906921386719e+00
-3.277275085449218750e+01,2.370495986938476562e+01,6.491835594177246094e+00
-3.524986267089843750e+01,1.638780212402343750e+01,4.227868080139160156e+00
-3.550769424438476562e+01,7.835235595703125000e+00,2.276632308959960938e+00
-3.358048629760742188e+01,2.223938369750976562e+01,1.138118934631347656e+01
-3.601927185058593750e+01,1.503543376922607422e+01,9.152250289916992188e+00
-3.627289199829101562e+01,6.615176200866699219e+00,7.231257915496826172e+00
-3.416373825073242188e+01,2.062513923645019531e+01,1.619455528259277344e+01
-3.654793930053710938e+01,1.358261203765869141e+01,1.401554393768310547e+01
-3.679602050781250000e+01,5.350990295410156250e+00,1.213754940032958984e+01
-3.451871871948242188e+01,1.887312126159667969e+01,2.089961242675781250e+01
-3.683238220214843750e+01,1.203899669647216797e+01,1.878507804870605469e+01
-3.707303619384765625e+01,4.051005363464355469e+00,1.696268844604492188e+01
1.175626182556152344e+01,1.184667682647705078e+01,-6.091237640380859375e+01
7.793231010437011719e+00,1.303726768493652344e+01,-6.057320785522460938e+01
8.812569618225097656e+00,1.075965595245361328e+01,-6.080615615844726562e+01
1.027842521667480469e+01,8.626734733581542969e+00,-6.088958358764648438e+01
4.957097053527832031e+00,1.277381706237792969e+01,-5.981832504272460938e+01
6.305575847625732422e+00,9.760788917541503906e+00,-6.012648391723632812e+01
8.244729042053222656e+00,6.939153194427490234e+00,-6.023685836791992188e+01
2.087807178497314453e+00,1.242500591278076172e+01,-5.866367340087890625e+01
3.756376266479492188e+00,8.696648597717285156e+00,-5.904500579833984375e+01
6.155910491943359375e+00,5.205178737640380859e+00,-5.918157196044921875e+01
-7.954254746437072754e-01,1.199310970306396484e+01,-5.711705398559570312e+01
1.182076692581176758e+00,7.574397087097167969e+00,-5.756900024414062500e+01
4.025955200195312500e+00,3.436420679092407227e+00,-5.773084640502929688e+01
-3.673400163650512695e+00,1.148088169097900391e+01,-5.518750000000000000e+01
-1.400065660476684570e+00,6.401424884796142578e+00,-5.570699691772460938e+01
1.869038939476013184e+00,1.644648790359497070e+00,-5.589305496215820312e+01
-6.526783943176269531e+00,1.089186859130859375e+01,-5.288906860351562500e+01
-3.972970008850097656e+00,5.185593605041503906e+00,-5.347268676757812500e+01
-3.004119992256164551e-01,-1.581508070230484009e-01,-5.368169021606445312e+01
-9.336565017700195312e+00,1.023017406463623047e+01,-5.023723602294921875e+01
-6.519280910491943359e+00,3.935136795043945312e+00,-5.088107681274414062e+01
-2.467881679534912109e+00,-1.959915161132812500e+00,-5.111165618896484375e+01
-1.208369731903076172e+01,9.499800682067871094e+00,-4.724872589111328125e+01
-9.021852493286132812e+00,2.658334493637084961e+00,-4.794845199584960938e+01
-4.618701934814453125e+00,-3.748453378677368164e+00,-4.819903182983398438e+01
-1.475006389617919922e+01,8.706013679504394531e+00,-4.394441986083984375e+01
-1.146411514282226562e+01,1.363780975341796875e+00,-4.469536972045898438e+01
-6.738712310791015625e+00,-5.511987686157226562e+00,-4.496430587768554688e+01
-1.731793022155761719e+01,7.854057788848876953e+00,-4.034646987915039062e+01
-1.382980537414550781e+01,6.008155271410942078e-02,-4.114361953735351562e+01
-8.813679695129394531e+00,-7.238678932189941406e+00,-4.142909622192382812e+01
-1.976975250244140625e+01,6.949332237243652344e+00,-3.647803497314453125e+01
-1.610280036926269531e+01,-1.244045853614807129e+00,-3.731601333618164062e+01
-1.082965373992919922e+01,-8.916919708251953125e+00,-3.761614990234375000e+01
-2.208932113647460938e+01,5.998274803161621094e+00,-3.236588287353515625e+01
-1.826821899414062500e+01,-2.539901733398437500e+00,-3.323917007446289062e+01
-1.277317333221435547e+01,-1.053550148010253906e+01,-3.355190277099609375e+01
-2.426138496398925781e+01,5.007026195526123047e+00,-2.803740310668945312e+01
-2.031151962280273438e+01,-3.818629503250122070e+00,-2.894006347656250000e+01
-1.463135719299316406e+01,-1.208369731903076172e+01,-2.926335525512695312e+01
-2.627074241638183594e+01,3.982330083847045898e+00,-2.352099990844726562e+01
-2.221865081787109375e+01,-5.071825504302978516e+00,-2.444704246520996094e+01
-1.639138221740722656e+01,-1.355082702636718750e+01,-2.477868080139160156e+01
-2.810461807250976562e+01,2.930906295776367188e+00,-1.884730339050292969e+01
-2.397732734680175781e+01,-6.291263103485107422e+00,-1.979052734375000000e+01
-1.804195022583007812e+01,-1.492746734619140625e+01,-2.012829589843750000e+01
-2.975061988830566406e+01,1.859964370727539062e+00,-1.404782295227050781e+01
-2.557578659057617188e+01,-7.468564987182617188e+00,-1.500194072723388672e+01
-1.957193756103515625e+01,-1.620434379577636719e+01,-1.534359359741210938e+01
-3.119725990295410156e+01,7.766200900077819824e-01,-9.154102325439453125e+00
-2.700273323059082031e+01,-8.595718383789062500e+00,-1.011267757415771484e+01
-2.097074508666992188e+01,-1.737261009216308594e+01,-1.045596981048583984e+01
-3.243537139892578125e+01,-3.119489848613739014e-01,-4.199200630187988281e+00
-2.824929618835449219e+01,-9.665461540222167969e+00,-5.155856609344482422e+00
-2.222937393188476562e+01,-1.842474746704101562e+01,-5.498451232910156250e+00
-3.345668029785156250e+01,-1.398498773574829102e+00,7.837713360786437988e-01
-2.930705451965332031e+01,-1.067071819305419922e+01,-1.645879298448562622e-01
-2.333951377868652344e+01,-1.935381317138671875e+01,-5.042074918746948242e-01
-3.425384140014648438e+01,-2.475579977035522461e+00,5.761459350585937500e+00
-3.016842269897460938e+01,-1.160434055328369141e+01,4.827771663665771484e+00
-2.429312705993652344e+01,-2.015308189392089844e+01,4.493431091308593750e+00
-3.482205200195312500e+01,-3.536194801330566406e+00,1.070069885253906250e+01
-3.082810974121093750e+01,-1.246044254302978516e+01,9.787941932678222656e+00
-2.508446884155273438e+01,-2.081773376464843750e+01,9.461069107055664062e+00
-3.515758132934570312e+01,-4.573097229003906250e+00,1.556835174560546875e+01
-3.128181076049804688e+01,-1.323326587677001953e+01,1.468260765075683594e+01
-2.570812988281250000e+01,-2.134322547912597656e+01,1.436541461944580078e+01
1.371619415283203125e+01,9.483222961425781250e+00,-6.091638183593750000e+01
1.620951843261718750e+01,8.090025901794433594e+00,-6.056618881225585938e+01
1.210337162017822266e+01,6.791325092315673828e+00,-6.081287765502929688e+01
1.415339088439941406e+01,5.367642402648925781e+00,-6.058620834350585938e+01
1.628974342346191406e+01,4.452094554901123047e+00,-6.022489166259765625e+01
1.065895080566406250e+01,4.511117458343505859e+00,-6.013537979125976562e+01
1.337089729309082031e+01,2.627737045288085938e+00,-5.983551788330078125e+01
1.619705963134765625e+01,1.416504859924316406e+00,-5.935755538940429688e+01
9.143241882324218750e+00,2.200705528259277344e+00,-5.905601501464843750e+01
1.249904823303222656e+01,-1.297587007284164429e-01,-5.868494796752929688e+01
1.599612140655517578e+01,-1.628485083580017090e+00,-5.809350967407226562e+01
7.566437721252441406e+00,-1.244116649031639099e-01,-5.758204650878906250e+01
1.154362106323242188e+01,-2.886367797851562500e+00,-5.714226913452148438e+01
1.568831539154052734e+01,-4.662746429443359375e+00,-5.644132232666015625e+01
5.938981056213378906e+00,-2.448625087738037109e+00,-5.572199249267578125e+01
1.051086044311523438e+01,-5.623713016510009766e+00,-5.521648406982421875e+01
1.527530574798583984e+01,-7.665529251098632812e+00,-5.441068649291992188e+01
4.271734714508056641e+00,-4.756576538085937500e+00,-5.348953628540039062e+01
9.407807350158691406e+00,-8.323423385620117188e+00,-5.292163467407226562e+01
1.476020622253417969e+01,-1.061718273162841797e+01,-5.201639175415039062e+01
2.575977563858032227e+00,-7.032703876495361328e+00,-5.089966201782226562e+01
8.241984367370605469e+00,-1.096754455566406250e+01,-5.027315521240234375e+01
1.414648532867431641e+01,-1.349791049957275391e+01,-4.927453994750976562e+01
8.629922270774841309e-01,-9.261655807495117188e+00,-4.796865081787109375e+01
7.020823955535888672e+00,-1.353806495666503906e+01,-4.728776550292968750e+01
1.343795394897460938e+01,-1.628813362121582031e+01,-4.620245361328125000e+01
-8.557433485984802246e-01,-1.142870140075683594e+01,-4.471704483032226562e+01
5.752818107604980469e+00,-1.601811408996582031e+01,-4.398632049560546875e+01
1.263961887359619141e+01,-1.896955871582031250e+01,-4.282159423828125000e+01
-2.568799018859863281e+00,-1.351940250396728516e+01,-4.116662979125976562e+01
4.446365356445312500e+00,-1.839118957519531250e+01,-4.039094543457031250e+01
1.175680828094482422e+01,-2.152412033081054688e+01,-3.915455245971679688e+01
-4.264662265777587891e+00,-1.551948642730712891e+01,-3.734020614624023438e+01
3.109978914260864258e+00,-2.064100456237792969e+01,-3.652479171752929688e+01
1.079517841339111328e+01,-2.393447113037109375e+01,-3.522500228881835938e+01
-5.932073116302490234e+00,-1.741588211059570312e+01,-3.326437759399414062e+01
1.752942323684692383e+00,-2.275276565551757812e+01,-3.241460800170898438e+01
9.761432647705078125e+00,-2.618483161926269531e+01,-3.106015396118164062e+01
-7.559682846069335938e+00,-1.919588470458984375e+01,-2.896612167358398438e+01
3.840657174587249756e-01,-2.471256637573242188e+01,-2.808776664733886719e+01
8.662439346313476562e+00,-2.826028823852539062e+01,-2.668766784667968750e+01
-9.136679649353027344e+00,-2.084718513488769531e+01,-2.447377586364746094e+01
-9.872570037841796875e-01,-2.650665855407714844e+01,-2.357266807556152344e+01
7.505394458770751953e+00,-3.014628791809082031e+01,-2.213634681701660156e+01
-1.065275669097900391e+01,-2.235916900634765625e+01,-1.981775665283203125e+01
-2.352109670639038086e+00,-2.812367057800292969e+01,-1.889992904663085938e+01
6.298156261444091797e+00,-3.183085632324218750e+01,-1.743695259094238281e+01
-1.209755516052246094e+01,-2.372176933288574219e+01,-1.502948379516601562e+01
-3.701165914535522461e+00,-2.955269432067871094e+01,-1.410105609893798828e+01
5.048867225646972656e+00,-3.330259704589843750e+01,-1.262119865417480469e+01
-1.346116542816162109e+01,-2.492529869079589844e+01,-1.014035034179687500e+01
-5.025360107421875000e+00,-3.078369522094726562e+01,-9.207586288452148438e+00
3.765727281570434570e+00,-3.455121612548828125e+01,-7.720789432525634766e+00
-1.473486137390136719e+01,-2.596232223510742188e+01,-5.183473587036132812e+00
-6.315996646881103516e+00,-3.180892562866210938e+01,-4.252576351165771484e+00
2.457409143447875977e+00,-3.556880950927734375e+01,-2.768757343292236328e+00
-1.591018867492675781e+01,-2.682580566406250000e+01,-1.919648498296737671e-01
-7.564481258392333984e+00,-3.262152862548828125e+01,7.308598160743713379e-01
1.132679700851440430e+00,-3.634885787963867188e+01,2.201756715774536133e+00
-1.697877311706542969e+01,-2.750954818725585938e+01,4.800818443298339844e+00
-8.762188911437988281e+00,-3.321559524536132812e+01,5.709366321563720703e+00
-1.996602267026901245e-01,-3.688500976562500000e+01,7.157540798187255859e+00
-1.793390655517578125e+01,-2.800937461853027344e+01,9.761592864990234375e+00
-9.901409149169921875e+00,-3.358763885498046875e+01,1.064977264404296875e+01
-1.530647516250610352e+00,-3.717501449584960938e+01,1.206548309326171875e+01
-1.876919174194335938e+01,-2.832205390930175781e+01,1.465703773498535156e+01
-1.097438621520996094e+01,-3.373526382446289062e+01,1.551893329620361328e+01
-2.851405382156372070e+00,-3.721636581420898438e+01,1.689275550842285156e+01
1.856618118286132812e+01,8.052350044250488281e+00,-5.995351409912109375e+01
1.836681365966796875e+01,4.124572753906250000e+00,-5.974971389770507812e+01
2.024665641784667969e+01,4.388842582702636719e+00,-5.919618988037109375e+01
2.180206298828125000e+01,5.226959228515625000e+00,-5.860179138183593750e+01
1.894478225708007812e+01,9.832940697669982910e-01,-5.872893524169921875e+01
2.143160247802734375e+01,1.332903623580932617e+00,-5.799668121337890625e+01
2.348925590515136719e+01,2.441618204116821289e+00,-5.721035766601562500e+01
1.939614295959472656e+01,-2.164582252502441406e+00,-5.731566619873046875e+01
2.247338867187500000e+01,-1.732036471366882324e+00,-5.640957641601562500e+01
2.501949501037597656e+01,-3.600726425647735596e-01,-5.543658065795898438e+01
1.971796417236328125e+01,-5.298013210296630859e+00,-5.551941299438476562e+01
2.336501121520996094e+01,-4.785405158996582031e+00,-5.444555282592773438e+01
2.638256263732910156e+01,-3.159364461898803711e+00,-5.329238510131835938e+01
1.990754127502441406e+01,-8.395979881286621094e+00,-5.335095977783203125e+01
2.409989166259765625e+01,-7.806570529937744141e+00,-5.211650466918945312e+01
