1.928415870666503906e+01,-1.201966190338134766e+01,2.902837753295898438e+00
1.734972953796386719e+01,-1.553148269653320312e+01,1.314165949821472168e+00
1.994060897827148438e+01,-7.681560039520263672e+00,4.235259056091308594e+00
1.927465438842773438e+01,-2.810843944549560547e+00,5.221237659454345703e+00
1.760989761352539062e+01,-1.312994575500488281e+01,7.396153926849365234e+00
1.567929363250732422e+01,-1.663465881347656250e+01,5.810665130615234375e+00
1.826502418518066406e+01,-8.800532341003417969e+00,8.725903511047363281e+00
1.760031127929687500e+01,-3.939575433731079102e+00,9.709873199462890625e+00
1.581792545318603516e+01,-1.415243148803710938e+01,1.184001541137695312e+01
1.390417575836181641e+01,-1.762674331665039062e+01,1.026831817626953125e+01
1.646729850769042969e+01,-9.860635757446289062e+00,1.315818881988525391e+01
1.580846595764160156e+01,-5.041989803314208984e+00,1.413362789154052734e+01
1.391993141174316406e+01,-1.508009052276611328e+01,1.620454216003417969e+01
1.203577709197998047e+01,-1.850061988830566406e+01,1.465716552734375000e+01
1.455923652648925781e+01,-1.085470390319824219e+01,1.750231170654296875e+01
1.391058731079101562e+01,-6.110605716705322266e+00,1.846265792846679688e+01
1.192887115478515625e+01,-1.590693378448486328e+01,2.046078872680664062e+01
1.008700847625732422e+01,-1.925092697143554688e+01,1.894808387756347656e+01
1.255397605895996094e+01,-1.177624797821044922e+01,2.172951889038085938e+01
1.191976737976074219e+01,-7.138393402099609375e+00,2.266832542419433594e+01
9.858176231384277344e+00,-1.662751770019531250e+01,2.458023834228515625e+01
8.070796966552734375e+00,-1.987251281738281250e+01,2.311229896545410156e+01
1.046473312377929688e+01,-1.261904811859130859e+01,2.581141090393066406e+01
9.849307060241699219e+00,-8.118458747863769531e+00,2.672243499755859375e+01
2.174625587463378906e+01,1.470545482635498047e+01,-5.332900619506835938e+01
2.353387069702148438e+01,1.396018886566162109e+01,-5.177408981323242188e+01
2.277356338500976562e+01,1.516189002990722656e+01,-5.174749374389648438e+01
2.178670883178710938e+01,1.624891853332519531e+01,-5.183216857910156250e+01
2.440247344970703125e+01,1.379986763000488281e+01,-4.997776412963867188e+01
2.339667129516601562e+01,1.538959407806396484e+01,-4.994258117675781250e+01
2.209115600585937500e+01,1.682761764526367188e+01,-5.005459976196289062e+01
2.510797691345214844e+01,1.354732227325439453e+01,-4.784743118286132812e+01
2.386339950561523438e+01,1.551444816589355469e+01,-4.780389404296875000e+01
2.224797248840332031e+01,1.729386329650878906e+01,-4.794249725341796875e+01
2.564574813842773438e+01,1.320426845550537109e+01,-4.539738845825195312e+01
2.417067527770996094e+01,1.553561687469482422e+01,-4.534580993652343750e+01
2.225614738464355469e+01,1.764456748962402344e+01,-4.551005935668945312e+01
2.601152420043945312e+01,1.277266025543212891e+01,-4.264294815063476562e+01
2.431594085693359375e+01,1.545268535614013672e+01,-4.258361816406250000e+01
2.211507987976074219e+01,1.787695503234863281e+01,-4.277245712280273438e+01
2.620354843139648438e+01,1.225575542449951172e+01,-3.960359954833984375e+01
2.429868507385253906e+01,1.526645374298095703e+01,-3.953697586059570312e+01
2.182624053955078125e+01,1.798987770080566406e+01,-3.974911499023437500e+01
2.622053146362304688e+01,1.165694522857666016e+01,-3.629972839355468750e+01
2.411912155151367188e+01,1.497825145721435547e+01,-3.622624206542968750e+01
2.139163970947265625e+01,1.798267173767089844e+01,-3.646024703979492188e+01
2.606161308288574219e+01,1.097998142242431641e+01,-3.275232696533203125e+01
2.377780342102050781e+01,1.458960723876953125e+01,-3.267245101928710938e+01
2.081351280212402344e+01,1.785480308532714844e+01,-3.292679214477539062e+01
2.572852897644042969e+01,1.022955322265625000e+01,-2.898611831665039062e+01
2.327761459350585938e+01,1.410347461700439453e+01,-2.890035057067871094e+01
2.009630012512207031e+01,1.760761642456054688e+01,-2.917334175109863281e+01
2.522360610961914062e+01,9.410922050476074219e+00,-2.502621841430664062e+01
2.262188339233398438e+01,1.352309989929199219e+01,-2.493520355224609375e+01
1.924487304687500000e+01,1.724284934997558594e+01,-2.522497177124023438e+01
2.454956436157226562e+01,8.529129981994628906e+00,-2.089863014221191406e+01
2.181448173522949219e+01,1.285203838348388672e+01,-2.080296134948730469e+01
1.826443862915039062e+01,1.676248741149902344e+01,-2.110755157470703125e+01
2.371143722534179688e+01,7.590303897857666016e+00,-1.663122940063476562e+01
2.086130523681640625e+01,1.209512519836425781e+01,-1.653151893615722656e+01
1.716186904907226562e+01,1.617004013061523438e+01,-1.684894943237304688e+01
2.271496582031250000e+01,6.600801944732666016e+00,-1.225286388397216797e+01
1.976877784729003906e+01,1.125741195678710938e+01,-1.214980220794677734e+01
1.594470787048339844e+01,1.546961116790771484e+01,-1.247792720794677734e+01
2.156614494323730469e+01,5.566993713378906250e+00,-7.792282581329345703e+00
1.854364204406738281e+01,1.034415912628173828e+01,-7.686567306518554688e+00
1.462061214447021484e+01,1.466544342041015625e+01,-8.023162841796875000e+00
2.027311134338378906e+01,4.496102809906005859e+00,-3.279598951339721680e+00
1.719465255737304688e+01,9.361850738525390625e+00,-3.171890497207641602e+00
1.319879913330078125e+01,1.376325988769531250e+01,-3.514757871627807617e+00
1.884476470947265625e+01,3.395038604736328125e+00,1.254975914955139160e+00
1.573073959350585938e+01,8.316949844360351562e+00,1.363915681838989258e+00
1.168881034851074219e+01,1.276912593841552734e+01,1.017098546028137207e+00
1.729003334045410156e+01,2.271302461624145508e+00,5.781149864196777344e+00
1.416137599945068359e+01,7.216295719146728516e+00,5.890590190887451172e+00
1.010046005249023438e+01,1.168938922882080078e+01,5.542144775390625000e+00
1.561976814270019531e+01,1.132358074188232422e+00,1.026869297027587891e+01
1.249738597869873047e+01,6.067444324493408203e+00,1.037791633605957031e+01
8.444592475891113281e+00,1.053151416778564453e+01,1.003014850616455078e+01
1.384505844116210938e+01,-1.417205668985843658e-02,1.468755340576171875e+01
1.074987316131591797e+01,4.878014087677001953e+00,1.479584693908691406e+01
6.732352256774902344e+00,9.303326606750488281e+00,1.445112991333007812e+01
1.197756576538085938e+01,-1.160575389862060547e+00,1.900801658630371094e+01
8.930294990539550781e+00,3.655903816223144531e+00,1.911464118957519531e+01
4.974932670593261719e+00,8.012722969055175781e+00,1.877524948120117188e+01
1.003012943267822266e+01,-2.299247980117797852e+00,2.320149803161621094e+01
7.051014900207519531e+00,2.409325838088989258e+00,2.330569267272949219e+01
3.184301137924194336e+00,6.668613910675048828e+00,2.297393798828125000e+01
8.015582084655761719e+00,-3.422530174255371094e+00,2.723982429504394531e+01
5.124670505523681641e+00,1.146710038185119629e+00,2.734095191955566406e+01
1.372380852699279785e+00,5.279918193817138672e+00,2.701900482177734375e+01
2.047230720520019531e+01,1.588482666015625000e+01,-5.349476242065429688e+01
1.900209617614746094e+01,1.647974014282226562e+01,-5.387923049926757812e+01
2.063456344604492188e+01,1.714209175109863281e+01,-5.202581024169921875e+01
1.939981079101562500e+01,1.778733825683593750e+01,-5.231198883056640625e+01
1.816602325439453125e+01,1.814096832275390625e+01,-5.267134475708007812e+01
2.056699371337890625e+01,1.800919723510742188e+01,-5.031076431274414062e+01
1.893354225158691406e+01,1.886278724670410156e+01,-5.068935012817382812e+01
1.730137825012207031e+01,1.933060836791992188e+01,-5.116473770141601562e+01
2.036197090148925781e+01,1.875593185424804688e+01,-4.825947952270507812e+01
1.834074020385742188e+01,1.981216239929199219e+01,-4.872794342041015625e+01
1.632110023498535156e+01,2.039107322692871094e+01,-4.931618118286132812e+01
2.002087783813476562e+01,1.937733459472656250e+01,-4.588575744628906250e+01
1.762539863586425781e+01,2.062918853759765625e+01,-4.644095230102539062e+01
1.523178768157958984e+01,2.131524085998535156e+01,-4.713812255859375000e+01
1.954559516906738281e+01,1.986888122558593750e+01,-4.320430755615234375e+01
1.679186248779296875e+01,2.130785560607910156e+01,-4.384255981445312500e+01
1.404031467437744141e+01,2.209656333923339844e+01,-4.464396667480468750e+01
1.893968200683593750e+01,2.022760581970214844e+01,-4.023426055908203125e+01
1.584617233276367188e+01,2.184420204162597656e+01,-4.095124435424804688e+01
1.275505447387695312e+01,2.273021125793457031e+01,-4.185156250000000000e+01
1.820726013183593750e+01,2.045121765136718750e+01,-3.699545669555664062e+01
1.479459762573242188e+01,2.223462104797363281e+01,-3.778640747070312500e+01
1.138459491729736328e+01,2.321203231811523438e+01,-3.877960586547851562e+01
1.735272789001464844e+01,2.053768730163574219e+01,-3.350844192504882812e+01
1.364381694793701172e+01,2.247588348388671875e+01,-3.436805725097656250e+01
9.937768936157226562e+00,2.353810119628906250e+01,-3.544749450683593750e+01
1.638224411010742188e+01,2.048693466186523438e+01,-2.979753684997558594e+01
1.240178203582763672e+01,2.256692695617675781e+01,-3.072011756896972656e+01
8.424537658691406250e+00,2.370691299438476562e+01,-3.187853431701660156e+01
1.530230045318603516e+01,2.029927825927734375e+01,-2.588758468627929688e+01
1.107701969146728516e+01,2.250727081298828125e+01,-2.686688995361328125e+01
6.854999542236328125e+00,2.371745109558105469e+01,-2.809659194946289062e+01
1.411975383758544922e+01,1.997551155090332031e+01,-2.180415534973144531e+01
9.677943229675292969e+00,2.229668426513671875e+01,-2.283363914489746094e+01
5.239547729492187500e+00,2.356891250610351562e+01,-2.412635803222656250e+01
1.284285736083984375e+01,1.951828575134277344e+01,-1.757483291625976562e+01
8.214136123657226562e+00,2.193708992004394531e+01,-1.864764976501464844e+01
3.589045047760009766e+00,2.326277732849121094e+01,-1.999475669860839844e+01
1.148018836975097656e+01,1.893066024780273438e+01,-1.322826576232910156e+01
6.695500373840332031e+00,2.143098640441894531e+01,-1.433722496032714844e+01
1.914592504501342773e+00,2.280135917663574219e+01,-1.572971057891845703e+01
1.004048156738281250e+01,1.821604728698730469e+01,-8.792949676513671875e+00
5.131918430328369141e+00,2.078114891052246094e+01,-9.930609703063964844e+00
2.272947728633880615e-01,2.218696975708007812e+01,-1.135913181304931641e+01
8.533734321594238281e+00,1.737978363037109375e+01,-4.298799514770507812e+00
3.534162282943725586e+00,1.999235725402832031e+01,-5.457574844360351562e+00
-1.461531758308410645e+00,2.142430305480957031e+01,-6.912616252899169922e+00
6.969939231872558594e+00,1.642735099792480469e+01,2.240106761455535889e-01
1.912655353546142578e+00,1.907011222839355469e+01,-9.481328129768371582e-01
-3.140598058700561523e+00,2.051856422424316406e+01,-2.419937372207641602e+00
5.359418392181396484e+00,1.536479759216308594e+01,4.745329856872558594e+00
2.784147262573242188e-01,1.801998329162597656e+01,3.567695856094360352e+00
-4.798599720001220703e+00,1.947521781921386719e+01,2.088963985443115234e+00
3.713106870651245117e+00,1.419958114624023438e+01,9.234955787658691406e+00
-1.357716917991638184e+00,1.684943962097167969e+01,8.059679985046386719e+00
-6.424518585205078125e+00,1.830165863037109375e+01,6.583899974822998047e+00
2.041955709457397461e+00,1.293945789337158203e+01,1.366282272338867188e+01
-2.984781265258789062e+00,1.556622505187988281e+01,1.249775123596191406e+01
-8.007522583007812500e+00,1.700590705871582031e+01,1.103482818603515625e+01
3.571301996707916260e-01,1.159259986877441406e+01,1.799914932250976562e+01
-4.591815948486328125e+00,1.417869949340820312e+01,1.685210418701171875e+01
-9.536847114562988281e+00,1.559609794616699219e+01,1.541181182861328125e+01
-1.330116033554077148e+00,1.016824436187744141e+01,2.221518898010253906e+01
-6.168202400207519531e+00,1.269652366638183594e+01,2.109386444091796875e+01
-1.100245094299316406e+01,1.408208560943603516e+01,1.968581771850585938e+01
-3.008408546447753906e+00,8.675991058349609375e+00,2.628272247314453125e+01
-7.703323364257812500e+00,1.112940788269042969e+01,2.519457054138183594e+01
-1.239450073242187500e+01,1.247397613525390625e+01,2.382819938659667969e+01
1.773172950744628906e+01,1.632424163818359375e+01,-5.438025283813476562e+01
1.701892471313476562e+01,1.816908073425292969e+01,-5.308126068115234375e+01
1.603302574157714844e+01,1.787988662719726562e+01,-5.351258087158203125e+01
1.527504634857177734e+01,1.729297828674316406e+01,-5.393611145019531250e+01
1.578390121459960938e+01,1.936779022216796875e+01,-5.170701217651367188e+01
1.447965431213378906e+01,1.898521995544433594e+01,-5.227760314941406250e+01
1.347693443298339844e+01,1.820879173278808594e+01,-5.283788681030273438e+01
1.444338989257812500e+01,2.043704986572265625e+01,-4.998719406127929688e+01
1.282951641082763672e+01,1.996365928649902344e+01,-5.069324111938476562e+01
1.158873558044433594e+01,1.900292968750000000e+01,-5.138653564453125000e+01
1.300635337829589844e+01,2.136978912353515625e+01,-4.793338012695312500e+01
1.109368801116943359e+01,2.080869102478027344e+01,-4.877016448974609375e+01
9.623094558715820312e+00,1.967010879516601562e+01,-4.959184265136718750e+01
1.148212718963623047e+01,2.215920066833496094e+01,-4.555815124511718750e+01
9.283358573913574219e+00,2.151429367065429688e+01,-4.652007293701171875e+01
7.592928886413574219e+00,2.020538711547851562e+01,-4.746461486816406250e+01
9.881143569946289062e+00,2.280061531066894531e+01,-4.287856674194335938e+01
7.411112308502197266e+00,2.207605934143066406e+01,-4.395917892456054688e+01
5.512082576751708984e+00,2.060563468933105469e+01,-4.502027893066406250e+01
8.214206695556640625e+00,2.328969955444335938e+01,-3.991255569458007812e+01
5.489358425140380859e+00,2.249036407470703125e+01,-4.110465621948242188e+01
3.394362926483154297e+00,2.086829566955566406e+01,-4.227523040771484375e+01
6.492109775543212891e+00,2.362256622314453125e+01,-3.667879867553710938e+01
3.530712604522705078e+00,2.275386238098144531e+01,-3.797438430786132812e+01
1.253907680511474609e+00,2.099092483520507812e+01,-3.924656677246093750e+01
4.726758956909179688e+00,2.379751396179199219e+01,-3.319994354248046875e+01
1.548477530479431152e+00,2.286533164978027344e+01,-3.459037780761718750e+01
-8.948998451232910156e-01,2.097327613830566406e+01,-3.595566940307617188e+01
2.929663896560668945e+00,2.381358909606933594e+01,-2.949933052062988281e+01
-4.440591931343078613e-01,2.282399749755859375e+01,-3.097528839111328125e+01
-3.037798166275024414e+00,2.081557846069335938e+01,-3.242457962036132812e+01
1.113055229187011719e+00,2.366995048522949219e+01,-2.560098457336425781e+01
-2.433541536331176758e+00,2.262961196899414062e+01,-2.715258216857910156e+01
-5.160295486450195312e+00,2.051833152770996094e+01,-2.867616462707519531e+01
-7.110542058944702148e-01,2.336812400817871094e+01,-2.153141021728515625e+01
-4.406917095184326172e+00,2.228405761718750000e+01,-2.314829635620117188e+01
-7.248314857482910156e+00,2.008388900756835938e+01,-2.473596572875976562e+01
-2.530361413955688477e+00,2.291023063659667969e+01,-1.731813240051269531e+01
-6.350744247436523438e+00,2.178961181640625000e+01,-1.898950195312500000e+01
-9.287869453430175781e+00,1.951531791687011719e+01,-2.063066101074218750e+01
-4.332689285278320312e+00,2.229867172241210938e+01,-1.298865699768066406e+01
-8.251958847045898438e+00,2.114899635314941406e+01,-1.470330142974853516e+01
-1.126518154144287109e+01,1.881588554382324219e+01,-1.638695335388183594e+01
-6.106173515319824219e+00,2.153805541992187500e+01,-8.572401046752929688e+00
-1.009815979003906250e+01,2.036716079711914062e+01,-1.031882953643798828e+01
-1.316721630096435547e+01,1.799069976806640625e+01,-1.203370952606201172e+01
-7.838750839233398438e+00,2.063361930847167969e+01,-4.098845958709716797e+00
-1.187680149078369141e+01,1.944917488098144531e+01,-5.865436553955078125e+00
-1.498126125335693359e+01,1.704531669616699219e+01,-7.600094795227050781e+00
-9.518859863281250000e+00,1.959084510803222656e+01,4.021623730659484863e-01
-1.357583236694335938e+01,1.840081214904785156e+01,-1.372715592384338379e+00
-1.669488143920898438e+01,1.598566532135009766e+01,-3.115523338317871094e+00
-1.113533210754394531e+01,1.841714859008789062e+01,4.900498390197753906e+00
-1.518418121337890625e+01,1.722950935363769531e+01,3.129176855087280273e+00
-1.267732048034667969e+01,1.712029457092285156e+01,9.366058349609375000e+00
-1.669099617004394531e+01,1.594303703308105469e+01,7.610140800476074219e+00
-1.413440132141113281e+01,1.570872592926025391e+01,1.376886081695556641e+01
-1.808597373962402344e+01,1.454970455169677734e+01,1.204011821746826172e+01
-2.112394142150878906e+01,1.219732952117919922e+01,1.034261322021484375e+01
-1.549705314636230469e+01,1.419228076934814453e+01,1.807967948913574219e+01
-1.936004638671875000e+01,1.305910396575927734e+01,1.638965415954589844e+01
-2.233005332946777344e+01,1.075950050354003906e+01,1.473016071319580078e+01
-1.675607681274414062e+01,1.258089637756347656e+01,2.226959419250488281e+01
-2.050477981567382812e+01,1.148130226135253906e+01,2.062958526611328125e+01
-2.338685417175292969e+01,9.249732017517089844e+00,1.901921081542968750e+01
1.700031471252441406e+01,1.546640300750732422e+01,-5.486243438720703125e+01
1.700169563293457031e+01,1.413357257843017578e+01,-5.519798660278320312e+01
1.480495834350585938e+01,1.643955039978027344e+01,-5.432217788696289062e+01
1.464543151855468750e+01,1.538533115386962891e+01,-5.464597702026367188e+01
1.480728244781494141e+01,1.420167160034179688e+01,-5.488557815551757812e+01
1.285504817962646484e+01,1.707980346679687500e+01,-5.334861755371093750e+01
1.264401626586914062e+01,1.568517875671386719e+01,-5.377696228027343750e+01
1.285811710357666016e+01,1.411933326721191406e+01,-5.409393310546875000e+01
1.081923675537109375e+01,1.760590553283691406e+01,-5.201850891113281250e+01
1.055810737609863281e+01,1.588019943237304688e+01,-5.254854583740234375e+01
1.082300376892089844e+01,1.394263458251953125e+01,-5.294077301025390625e+01
8.711159706115722656e+00,1.801434326171875000e+01,-5.034083557128906250e+01
8.401620864868164062e+00,1.596913337707519531e+01,-5.096902847290039062e+01
8.715627670288085938e+00,1.367276859283447266e+01,-5.143386840820312500e+01
6.544555664062500000e+00,1.830208969116210938e+01,-4.832561492919921875e+01
6.188832283020019531e+00,1.595096492767333984e+01,-4.904772949218750000e+01
6.549726963043212891e+00,1.331123352050781250e+01,-4.958209991455078125e+01
4.334341049194335938e+00,1.846747016906738281e+01,-4.598752593994140625e+01
3.934650421142578125e+00,1.582627582550048828e+01,-4.679875946044921875e+01
4.340118408203125000e+00,1.286076068878173828e+01,-4.739906692504882812e+01
2.095174074172973633e+00,1.850949859619140625e+01,-4.334225463867187500e+01
1.654220938682556152e+00,1.559582519531250000e+01,-4.423719024658203125e+01
2.101517677307128906e+00,1.232438278198242188e+01,-4.489942550659179688e+01
-1.581242829561233521e-01,1.842741394042968750e+01,-4.040623092651367188e+01
-6.373353004455566406e-01,1.526080226898193359e+01,-4.137884902954101562e+01
-1.511507630348205566e-01,1.170532131195068359e+01,-4.209856414794921875e+01
-2.410370349884033203e+00,1.822220039367675781e+01,-3.720022964477539062e+01
-2.924543142318725586e+00,1.482369136810302734e+01,-3.824402618408203125e+01
-2.402825117111206055e+00,1.100804996490478516e+01,-3.901641845703125000e+01
-4.646459579467773438e+00,1.789521408081054688e+01,-3.374570083618164062e+01
-5.192333221435546875e+00,1.428771209716796875e+01,-3.485371398925781250e+01
-4.638546943664550781e+00,1.023725605010986328e+01,-3.567365264892578125e+01
-6.851325035095214844e+00,1.744821929931640625e+01,-3.006498336791992188e+01
-7.425206184387207031e+00,1.365585803985595703e+01,-3.122978973388671875e+01
-6.843064308166503906e+00,9.397830009460449219e+00,-3.209175491333007812e+01
-9.010558128356933594e+00,1.688468170166015625e+01,-2.618322181701660156e+01
-9.608538627624511719e+00,1.293271732330322266e+01,-2.739702987670898438e+01
-9.001850128173828125e+00,8.495555877685546875e+00,-2.829523849487304688e+01
-1.110948276519775391e+01,1.620833015441894531e+01,-2.212667655944824219e+01
-1.172763729095458984e+01,1.212321376800537109e+01,-2.338138961791992188e+01
-1.110053348541259766e+01,7.536578178405761719e+00,-2.430986404418945312e+01
-1.313388919830322266e+01,1.542322921752929688e+01,-1.792168807983398438e+01
-1.376809215545654297e+01,1.123236846923828125e+01,-1.920889854431152344e+01
-1.312474822998046875e+01,6.527036666870117188e+00,-2.016139602661132812e+01
-1.507066345214843750e+01,1.453516387939453125e+01,-1.359692668914794922e+01
-1.571652793884277344e+01,1.026656055450439453e+01,-1.490797710418701172e+01
-1.506126213073730469e+01,5.473870754241943359e+00,-1.587816810607910156e+01
-1.690665054321289062e+01,1.354992008209228516e+01,-9.181338310241699219e+00
-1.756000328063964844e+01,9.232056617736816406e+00,-1.050753211975097656e+01
-1.689719581604003906e+01,4.384149074554443359e+00,-1.148890304565429688e+01
-1.862931060791015625e+01,1.247384452819824219e+01,-4.704195022583007812e+00
-1.928576087951660156e+01,8.135743141174316406e+00,-6.036616802215576172e+00
-1.861980628967285156e+01,3.265027046203613281e+00,-7.022594928741455078e+00
-2.022751045227050781e+01,1.131444549560546875e+01,-1.956114470958709717e-01
-2.088263511657714844e+01,6.985031604766845703e+00,-1.525361180305480957e+00
-2.021792411804199219e+01,2.124074697494506836e+00,-2.509330511093139648e+00
-2.233985710144042969e+01,5.787596702575683594e+00,2.996081352233886719e+00
-2.168102455139160156e+01,9.689510464668273926e-01,2.020642518997192383e+00
-2.300809478759765625e+01,8.776799201965332031e+00,8.795235633850097656e+00
-2.364740180969238281e+01,4.551412582397460938e+00,7.497465610504150391e+00
-2.299875068664550781e+01,-1.926855891942977905e-01,6.537120819091796875e+00
-2.417191696166992188e+01,7.415506839752197266e+00,1.321745491027832031e+01
-2.479701995849609375e+01,3.284821748733520508e+00,1.194872474670410156e+01
-2.416281127929687500e+01,-1.353032827377319336e+00,1.100991821289062500e+01
-2.517423439025878906e+01,6.004735946655273438e+00,1.755127143859863281e+01
-2.578079223632812500e+01,1.996267557144165039e+00,1.632009887695312500e+01
-2.516536521911621094e+01,-2.504322528839111328e+00,1.540907287597656250e+01
1.774175643920898438e+01,1.268230342864990234e+01,-5.529486465454101562e+01
1.528956127166748047e+01,1.296663570404052734e+01,-5.502165222167968750e+01
1.604986763000488281e+01,1.176493453979492188e+01,-5.504824447631835938e+01
1.703672409057617188e+01,1.067790508270263672e+01,-5.496356964111328125e+01
1.349612712860107422e+01,1.248551940917968750e+01,-5.427393722534179688e+01
1.450192928314208984e+01,1.089579296112060547e+01,-5.430912399291992188e+01
1.580744361877441406e+01,9.457770347595214844e+00,-5.419710540771484375e+01
1.161250400543212891e+01,1.192095565795898438e+01,-5.316349792480468750e+01
1.285708332061767578e+01,9.953829765319824219e+00,-5.320703887939453125e+01
1.447250843048095703e+01,8.174415588378906250e+00,-5.306843185424804688e+01
9.651267051696777344e+00,1.127673339843750000e+01,-5.169785690307617188e+01
1.112633991241455078e+01,8.945384979248046875e+00,-5.174943542480468750e+01
1.304086685180664062e+01,6.836433887481689453e+00,-5.158518600463867188e+01
7.625339031219482422e+00,1.055690670013427734e+01,-4.988554000854492188e+01
9.320922851562500000e+00,7.876882076263427734e+00,-4.994486999511718750e+01
1.152178192138671875e+01,5.452613353729248047e+00,-4.975603485107421875e+01
5.548441410064697266e+00,9.766517639160156250e+00,-4.773996734619140625e+01
7.453304767608642578e+00,6.755819320678710938e+00,-4.780659484863281250e+01
9.925748825073242188e+00,4.032396316528320312e+00,-4.759445190429687500e+01
3.434493780136108398e+00,8.910932540893554688e+00,-4.527549743652343750e+01
5.535902023315429688e+00,5.589626789093017578e+00,-4.534898376464843750e+01
8.263383865356445312e+00,2.585207223892211914e+00,-4.511497879028320312e+01
1.297502994537353516e+00,7.995520591735839844e+00,-4.250730133056640625e+01
3.581312656402587891e+00,4.385894775390625000e+00,-4.258717727661132812e+01
6.545604228973388672e+00,1.120699167251586914e+00,-4.233283615112304688e+01
-8.481258153915405273e-01,7.026783466339111328e+00,-3.945505142211914062e+01
1.602787971496582031e+00,3.152862787246704102e+00,-3.954081726074218750e+01
4.784103870391845703e+00,-3.512790501117706299e-01,-3.926782608032226562e+01
-2.988130807876586914e+00,6.010969638824462891e+00,-3.613926696777343750e+01
-3.864066302776336670e-01,1.898791670799255371e+00,-3.623028182983398438e+01
2.990602016448974609e+00,-1.820958733558654785e+00,-3.594051361083984375e+01
-5.108043193817138672e+00,4.954953193664550781e+00,-3.258122634887695312e+01
-2.372961759567260742e+00,6.320446133613586426e-01,-3.267689132690429688e+01
1.177081704139709473e+00,-3.278404235839843750e+00,-3.237230300903320312e+01
-7.193899154663085938e+00,3.865788936614990234e+00,-2.880531692504882812e+01
-4.343768119812011719e+00,-6.390329003334045410e-01,-2.890502738952636719e+01
-6.443318128585815430e-01,-4.713947772979736328e+00,-2.858759498596191406e+01
-9.231653213500976562e+00,2.750839233398437500e+00,-2.483711814880371094e+01
-6.285464763641357422e+00,-1.905771255493164062e+00,-2.494017982482910156e+01
-2.461394786834716797e+00,-6.117970466613769531e+00,-2.461205482482910156e+01
-1.120751667022705078e+01,1.617455244064331055e+00,-2.070229721069335938e+01
-8.185012817382812500e+00,-3.159709930419921875e+00,-2.080801200866699219e+01
-4.261983871459960938e+00,-7.480994224548339844e+00,-2.047141647338867188e+01
-1.310841083526611328e+01,4.731293022632598877e-01,-1.642910385131835938e+01
-1.002995204925537109e+01,-4.392618656158447266e+00,-1.653681373596191406e+01
-6.034098625183105469e+00,-8.794028282165527344e+00,-1.619394493103027344e+01
-1.492183876037597656e+01,-6.742091178894042969e-01,-1.204618549346923828e+01
-1.180781364440917969e+01,-5.596120357513427734e+00,-1.215512466430664062e+01
-7.765884399414062500e+00,-1.004829597473144531e+01,-1.180830764770507812e+01
-1.663518714904785156e+01,-1.817119240760803223e+00,-7.582507610321044922e+00
-1.350652885437011719e+01,-6.762112140655517578e+00,-7.691947460174560547e+00
-9.445612907409667969e+00,-1.123520565032958984e+01,-7.343502044677734375e+00
-1.823737907409667969e+01,-2.947858810424804688e+00,-3.068150043487548828e+00
-1.511499786376953125e+01,-7.882945060729980469e+00,-3.177373647689819336e+00
-1.106220436096191406e+01,-1.234701538085937500e+01,-2.829605817794799805e+00
-1.971761703491210938e+01,-4.058866977691650391e+00,1.466716647148132324e+00
-1.662243080139160156e+01,-8.951052665710449219e+00,1.358422875404357910e+00
-1.260491085052490234e+01,-1.337636566162109375e+01,1.703140020370483398e+00
-2.106572914123535156e+01,-5.142715930938720703e+00,5.991761684417724609e+00
-1.801845932006835938e+01,-9.959195137023925781e+00,5.885137557983398438e+00
-1.406309700012207031e+01,-1.431601333618164062e+01,6.224528312683105469e+00
-2.227317428588867188e+01,-6.192178726196289062e+00,1.047674560546875000e+01
-1.929405975341796875e+01,-1.090075206756591797e+01,1.037255096435546875e+01
-1.542734622955322266e+01,-1.516004085540771484e+01,1.070430660247802734e+01
-2.333164024353027344e+01,-7.200250625610351562e+00,1.489168453216552734e+01
-2.044072914123535156e+01,-1.176949119567871094e+01,1.479055595397949219e+01
-1.668843841552734375e+01,-1.590269947052001953e+01,1.511250400543212891e+01
1.901570510864257812e+01,1.150293159484863281e+01,-5.512910461425781250e+01
2.048591613769531250e+01,1.090801811218261719e+01,-5.474464035034179688e+01
1.818886947631835938e+01,9.784733772277832031e+00,-5.476993179321289062e+01
1.942362213134765625e+01,9.139486312866210938e+00,-5.448374938964843750e+01
2.065740966796875000e+01,8.785857200622558594e+00,-5.412439346313476562e+01
1.733160781860351562e+01,8.276189804077148438e+00,-5.394094085693359375e+01
1.896505737304687500e+01,7.422600269317626953e+00,-5.356235122680664062e+01
2.059722137451171875e+01,6.954778194427490234e+00,-5.308696746826171875e+01
1.635851097106933594e+01,6.712346553802490234e+00,-5.275144958496093750e+01
1.837974166870117188e+01,5.656116485595703125e+00,-5.228298568725585938e+01
2.039938163757324219e+01,5.077204704284667969e+00,-5.169474792480468750e+01
1.527613735198974609e+01,5.103667259216308594e+00,-5.120948791503906250e+01
1.767161560058593750e+01,3.851813793182373047e+00,-5.065429687500000000e+01
2.006522750854492188e+01,3.165760755538940430e+00,-4.995712280273437500e+01
1.409126663208007812e+01,3.460686683654785156e+00,-4.932418060302734375e+01
1.684499931335449219e+01,2.021711111068725586e+00,-4.868593215942382812e+01
1.959654808044433594e+01,1.233004570007324219e+00,-4.788452148437500000e+01
1.281230831146240234e+01,1.794666767120361328e+00,-4.710931015014648438e+01
1.590581798553466797e+01,1.780706942081451416e-01,-4.639232635498046875e+01
1.899693489074707031e+01,-7.079377770423889160e-01,-4.549200439453125000e+01
1.144776439666748047e+01,1.166598498821258545e-01,-4.457976913452148438e+01
1.486042690277099609e+01,-1.666742324829101562e+00,-4.378881835937500000e+01
1.827042961120605469e+01,-2.644153594970703125e+00,-4.279561996459960938e+01
1.000638866424560547e+01,-1.562185287475585938e+00,-4.175118255615234375e+01
1.371529960632324219e+01,-3.500382184982299805e+00,-4.089156723022460938e+01
1.742134666442871094e+01,-4.562599658966064453e+00,-3.981212997436523438e+01
8.498159408569335938e+00,-3.230597734451293945e+00,-3.864363098144531250e+01
1.247862148284912109e+01,-5.310589313507080078e+00,-3.772105026245117188e+01
1.645586585998535156e+01,-6.450576305389404297e+00,-3.656263351440429688e+01
6.933175563812255859e+00,-4.877387046813964844e+00,-3.527790069580078125e+01
1.115845584869384766e+01,-7.085378646850585938e+00,-3.429859542846679688e+01
1.538047695159912109e+01,-8.295560836791992188e+00,-3.306889343261718750e+01
5.321766376495361328e+00,-6.491428852081298828e+00,-3.167569923400878906e+01
9.763576507568359375e+00,-8.812602043151855469e+00,-3.064621543884277344e+01
1.420197200775146484e+01,-1.008482837677001953e+01,-2.935349655151367188e+01
3.674680233001708984e+00,-8.062193870544433594e+00,-2.786171340942382812e+01
8.303401947021484375e+00,-1.048099708557128906e+01,-2.678889656066894531e+01
1.292849254608154297e+01,-1.180668354034423828e+01,-2.544178962707519531e+01
2.003125190734863281e+00,-9.579018592834472656e+00,-2.386171531677246094e+01
6.787813186645507812e+00,-1.207934570312500000e+01,-2.275275611877441406e+01
1.156872081756591797e+01,-1.344971752166748047e+01,-2.136027145385742188e+01
3.181466460227966309e-01,-1.103159713745117188e+01,-1.970162963867187500e+01
5.226709842681884766e+00,-1.359669876098632812e+01,-1.856397056579589844e+01
1.013133430480957031e+01,-1.500251960754394531e+01,-1.713544845581054688e+01
-1.369033455848693848e+00,-1.241055297851562500e+01,-1.540990352630615234e+01
3.630538463592529297e+00,-1.502312469482421875e+01,-1.425112819671630859e+01
8.626232147216796875e+00,-1.645507049560546875e+01,-1.279608726501464844e+01
-3.047013044357299805e+00,-1.370652103424072266e+01,-1.101521968841552734e+01
2.010270595550537109e+00,-1.634928321838378906e+01,-9.843076705932617188e+00
7.063524246215820312e+00,-1.779773521423339844e+01,-8.371272087097167969e+00
-4.704571247100830078e+00,-1.491061496734619141e+01,-6.546687602996826172e+00
3.764323294162750244e-01,-1.756579971313476562e+01,-5.369053363800048828e+00
5.453446865081787109e+00,-1.902103424072265625e+01,-3.890321254730224609e+00
-6.330718517303466797e+00,-1.601508140563964844e+01,-2.034413576126098633e+00
-1.259894728660583496e+00,-1.866493988037109375e+01,-8.591372370719909668e-01
3.806906700134277344e+00,-2.011715888977050781e+01,6.166424751281738281e-01
-7.914514064788818359e+00,-1.701249694824218750e+01,2.491446971893310547e+00
-2.887777090072631836e+00,-1.963926315307617188e+01,3.656518697738647461e+00
2.134964227676391602e+00,-2.107894515991210938e+01,5.119442462921142578e+00
-9.445294380187988281e+00,-1.789589118957519531e+01,7.000628471374511719e+00
-4.496347904205322266e+00,-2.048199081420898438e+01,8.147674560546875000e+00
4.486828446388244629e-01,-2.189938926696777344e+01,9.587966918945312500e+00
-1.091292858123779297e+01,-1.865966987609863281e+01,1.146305656433105469e+01
-6.074842453002929688e+00,-2.118795013427734375e+01,1.258437919616699219e+01
-1.240593910217285156e+00,-2.257351112365722656e+01,1.399242591857910156e+01
-1.230764961242675781e+01,-1.929877281188964844e+01,1.584878540039062500e+01
-7.612735271453857422e+00,-2.175218963623046875e+01,1.693693733215332031e+01
-2.921557664871215820e+00,-2.309675598144531250e+01,1.830331039428710938e+01
2.175628280639648438e+01,1.106351661682128906e+01,-5.424361419677734375e+01
2.180450820922851562e+01,8.757742881774902344e+00,-5.371447753906250000e+01
2.279040718078613281e+01,9.046937942504882812e+00,-5.328315734863281250e+01
2.211469841003417969e+01,6.917597293853759766e+00,-5.254469299316406250e+01
2.341894531250000000e+01,7.300166606903076172e+00,-5.197410202026367188e+01
2.227709197998046875e+01,5.031228065490722656e+00,-5.102373886108398438e+01
2.389096641540527344e+01,5.504618167877197266e+00,-5.031768798828125000e+01
2.229066085815429688e+01,3.111211538314819336e+00,-4.916186523437500000e+01
2.420332717895507812e+01,3.672311305999755859e+00,-4.832508087158203125e+01
2.215473556518554688e+01,1.170366287231445312e+00,-4.697033691406250000e+01
2.435350418090820312e+01,1.815273761749267578e+00,-4.600841903686523438e+01
2.187084579467773438e+01,-7.783416509628295898e-01,-4.446500396728515625e+01
2.434087753295898438e+01,-5.378594994544982910e-02,-4.338439178466796875e+01
2.144081878662109375e+01,-2.721820354461669922e+00,-4.166267013549804688e+01
2.416566658020019531e+01,-1.922486424446105957e+00,-4.047056961059570312e+01
2.086700630187988281e+01,-4.647063255310058594e+00,-3.858082580566406250e+01
2.382840347290039062e+01,-3.778360843658447266e+00,-3.728524017333984375e+01
2.015364456176757812e+01,-6.541177272796630859e+00,-3.524122238159179688e+01
2.333192634582519531e+01,-5.608994483947753906e+00,-3.385078811645507812e+01
1.930581283569335938e+01,-8.391697883605957031e+00,-3.166615676879882812e+01
2.267953491210937500e+01,-7.402105808258056641e+00,-3.019019699096679688e+01
1.832846450805664062e+01,-1.018586730957031250e+01,-2.787887001037597656e+01
2.187506103515625000e+01,-9.145528793334960938e+00,-2.632727050781250000e+01
1.722859191894531250e+01,-1.191203117370605469e+01,-2.390513610839843750e+01
2.092445564270019531e+01,-1.082796478271484375e+01,-2.228824996948242188e+01
1.601367378234863281e+01,-1.355858993530273438e+01,-1.977184867858886719e+01
1.983405685424804688e+01,-1.243797111511230469e+01,-1.810047912597656250e+01
1.469131851196289062e+01,-1.511422348022460938e+01,-1.550592231750488281e+01
1.861058807373046875e+01,-1.396454715728759766e+01,-1.379127883911132812e+01
1.327087402343750000e+01,-1.656882476806640625e+01,-1.113630199432373047e+01
1.726286125183105469e+01,-1.539792823791503906e+01,-9.389874458312988281e+00
1.176167678833007812e+01,-1.791279029846191406e+01,-6.692363262176513672e+00
1.579972743988037109e+01,-1.672834396362304688e+01,-4.925772666931152344e+00
1.017370700836181641e+01,-1.913666152954101562e+01,-2.203519821166992188e+00
1.423067951202392578e+01,-1.794662857055664062e+01,-4.286417663097381592e-01
8.517720222473144531e+00,-2.023265075683593750e+01,2.300044298171997070e+00
1.256656932830810547e+01,-1.904500961303710938e+01,4.071365833282470703e+00
6.804761886596679688e+00,-2.119333267211914062e+01,6.788211822509765625e+00
1.081843852996826172e+01,-2.001607704162597656e+01,8.544129371643066406e+00
5.046236991882324219e+00,-2.201201820373535156e+01,1.123091697692871094e+01
8.997809410095214844e+00,-2.085299682617187500e+01,1.295965957641601562e+01
3.254008531570434570e+00,-2.268370628356933594e+01,1.559856414794921875e+01
7.117002010345458984e+00,-2.155052947998046875e+01,1.728858947753906250e+01
1.440018653869628906e+00,-2.320367813110351562e+01,1.986191368103027344e+01
5.188721656799316406e+00,-2.210408210754394531e+01,2.150192451477050781e+01
2.106106758117675781e+01,1.460735511779785156e+01,-5.793491363525390625e+01
2.441496849060058594e+01,1.206355762481689453e+01,-5.643125534057617188e+01
2.441314506530761719e+01,1.382954883575439453e+01,-5.598664855957031250e+01
2.653377532958984375e+01,1.022622871398925781e+01,-5.497391510009765625e+01
2.591092300415039062e+01,9.095434188842773438e+00,-5.548545074462890625e+01
2.674515724182128906e+01,1.162305259704589844e+01,-5.454488372802734375e+01
2.653071784973144531e+01,1.319138431549072266e+01,-5.422740936279296875e+01
2.801800346374511719e+01,8.615438461303710938e+00,-5.323977279663085938e+01
2.719405364990234375e+01,7.119504451751708984e+00,-5.391647720336914062e+01
2.829764556884765625e+01,1.046327781677246094e+01,-5.267221069335937500e+01
2.801401329040527344e+01,1.253799819946289062e+01,-5.225221252441406250e+01
2.931505012512207031e+01,6.947012424468994141e+00,-5.114981079101562500e+01
2.829546356201171875e+01,5.095972537994384766e+00,-5.198716735839843750e+01
2.966103553771972656e+01,9.233572959899902344e+00,-5.044751358032226562e+01
2.931003761291503906e+01,1.180082511901855469e+01,-4.992782211303710938e+01
3.041622161865234375e+01,5.232169151306152344e+00,-4.871807479858398438e+01
2.920781517028808594e+01,3.038386344909667969e+00,-4.971049499511718750e+01
3.082624626159667969e+01,7.942125797271728516e+00,-4.788574600219726562e+01
3.041032791137695312e+01,1.098478603363037109e+01,-4.726979064941406250e+01
3.131338119506835938e+01,3.482325315475463867e+00,-4.595973205566406250e+01
2.992431640625000000e+01,9.604591131210327148e-01,-4.710054397583007812e+01
3.178483009338378906e+01,6.597462177276611328e+00,-4.500291442871093750e+01
3.130657958984375000e+01,1.009512424468994141e+01,-4.429489135742187500e+01
3.200136184692382812e+01,1.709104418754577637e+00,-4.289416122436523438e+01
3.044083976745605469e+01,-1.123928546905517578e+00,-4.417576217651367188e+01
3.253094100952148438e+01,5.208676815032958984e+00,-4.181928253173828125e+01
3.199365043640136719e+01,9.137971878051757812e+00,-4.102389526367187500e+01
3.247547531127929688e+01,-7.550176978111267090e-02,-3.954200363159179688e+01
3.075400161743164062e+01,-3.200834035873413086e+00,-4.095581054687500000e+01
3.305967330932617188e+01,3.785161256790161133e+00,-3.835622406005859375e+01
3.246696472167968750e+01,8.119764328002929688e+00,-3.747879409790039062e+01
3.273189926147460938e+01,-1.859563946723937988e+00,-3.592485046386718750e+01
3.086093521118164062e+01,-5.256175994873046875e+00,-3.746140289306640625e+01
3.336681365966796875e+01,2.336212635040283203e+00,-3.463614273071289062e+01
3.272266006469726562e+01,7.047142982482910156e+00,-3.368252563476562500e+01
3.276954650878906250e+01,-3.631179094314575195e+00,-3.206760406494140625e+01
3.076168251037597656e+01,-7.276447772979736328e+00,-3.371662139892578125e+01
3.345092773437500000e+01,8.717170953750610352e-01,-3.068457031250000000e+01
3.275970458984375000e+01,5.927418708801269531e+00,-2.966113662719726562e+01
3.258824920654296875e+01,-5.378569126129150391e+00,-2.799604988098144531e+01
3.045684432983398438e+01,-9.248085021972656250e+00,-2.974651527404785156e+01
3.331155776977539062e+01,-5.986294150352478027e-01,-2.652791976928710938e+01
3.257775878906250000e+01,4.768091201782226562e+00,-2.544154739379882812e+01
3.218848419189453125e+01,-7.089925765991210938e+00,-2.373678207397460938e+01
2.994790267944335938e+01,-1.115781307220458984e+01,-2.557695198059082031e+01
3.294892120361328125e+01,-2.065062761306762695e+00,-2.219340324401855469e+01
3.217745208740234375e+01,3.576783418655395508e+00,-2.105135345458984375e+01
3.157371330261230469e+01,-8.753949165344238281e+00,-1.931897544860839844e+01
2.923880577087402344e+01,-1.299289798736572266e+01,-2.123656654357910156e+01
3.236602020263671875e+01,-3.517573595046997070e+00,-1.771068191528320312e+01
3.156213378906250000e+01,2.361599683761596680e+00,-1.652057838439941406e+01
3.074782180786132812e+01,-1.035933876037597656e+01,-1.477198791503906250e+01
2.833428764343261719e+01,-1.474117660522460938e+01,-1.675419044494628906e+01
3.156689453125000000e+01,-4.946692943572998047e+00,-1.310951995849609375e+01
3.073591613769531250e+01,1.130606889724731445e+00,-1.187931251525878906e+01
2.971586418151855469e+01,-1.189533424377441406e+01,-1.012604427337646484e+01
2.723978996276855469e+01,-1.639056205749511719e+01,-1.215956974029541016e+01
3.055610847473144531e+01,-6.342536449432373047e+00,-8.420541763305664062e+00
2.970368576049804688e+01,-1.079492270946502686e-01,-7.158472537994384766e+00
2.848529243469238281e+01,-1.335194492340087891e+01,-5.412307262420654297e+00
2.596325302124023438e+01,-1.793049049377441406e+01,-7.483550548553466797e+00
2.934113502502441406e+01,-7.696109294891357422e+00,-3.675155639648437500e+00
2.847289466857910156e+01,-1.345816969871520996e+00,-2.389662504196166992e+00
2.706446075439453125e+01,-1.471926498413085938e+01,-6.625526547431945801e-01
2.451331520080566406e+01,-1.935059165954589844e+01,-2.757684707641601562e+00
2.793012428283691406e+01,-8.998182296752929688e+00,1.094620943069458008e+00
2.705184555053710938e+01,-2.574640750885009766e+00,2.394932746887207031e+00
2.546208572387695312e+01,-1.598783206939697266e+01,4.091698169708251953e+00
2.289902687072753906e+01,-2.064099121093750000e+01,1.986730933189392090e+00
2.633188819885253906e+01,-1.023990917205810547e+01,5.857143878936767578e+00
2.544950485229492188e+01,-3.786234378814697266e+00,7.163560867309570312e+00
2.368961334228515625e+01,-1.714959907531738281e+01,8.818619728088378906e+00
2.113166809082031250e+01,-2.179341316223144531e+01,6.717867374420166016e+00
2.455764961242675781e+01,-1.141321563720703125e+01,1.058051395416259766e+01
2.367699241638183594e+01,-4.972508907318115234e+00,1.188428878784179688e+01
2.175884437561035156e+01,-1.819684028625488281e+01,1.348660373687744141e+01
1.922316169738769531e+01,-2.280026626586914062e+01,1.140412712097167969e+01
2.261927223205566406e+01,-1.251028442382812500e+01,1.523316860198974609e+01
2.174636459350585938e+01,-6.125575065612792969e+00,1.652564239501953125e+01
1.968224525451660156e+01,-1.912203788757324219e+01,1.806418800354003906e+01
1.718572425842285156e+01,-2.365420532226562500e+01,1.601391601562500000e+01
2.052936363220214844e+01,-1.352346706390380859e+01,1.978373146057128906e+01
1.966979789733886719e+01,-7.237548351287841797e+00,2.105614662170410156e+01
1.747402954101562500e+01,-1.991944503784179688e+01,2.252108764648437500e+01
1.503348064422607422e+01,-2.435013771057128906e+01,2.051674842834472656e+01
1.830220985412597656e+01,-1.444631385803222656e+01,2.420211791992187500e+01
1.746200561523437500e+01,-8.301205635070800781e+00,2.544606971740722656e+01
1.514911174774169922e+01,-2.058374023437500000e+01,2.682741928100585938e+01
1.278077411651611328e+01,-2.488330459594726562e+01,2.488239288330078125e+01
1.595279598236083984e+01,-1.527257156372070312e+01,2.845870780944824219e+01
1.513740158081054688e+01,-9.309346199035644531e+00,2.966581916809082031e+01
2.343256378173828125e+01,1.575247192382812500e+01,-5.585828781127929688e+01
2.589169311523437500e+01,1.482779407501220703e+01,-5.404711914062500000e+01
2.488428497314453125e+01,1.642003440856933594e+01,-5.401188278198242188e+01
2.357671356201171875e+01,1.786034774780273438e+01,-5.412407302856445312e+01
2.716860961914062500e+01,1.470279121398925781e+01,-5.201372528076171875e+01
2.583591270446777344e+01,1.680914878845214844e+01,-5.196711349487304688e+01
2.410614776611328125e+01,1.871453666687011719e+01,-5.211552429199218750e+01
2.826397132873535156e+01,1.447952365875244141e+01,-4.963270568847656250e+01
2.661491775512695312e+01,1.708596229553222656e+01,-4.957501602172851562e+01
2.447448730468750000e+01,1.944366836547851562e+01,-4.975866699218750000e+01
2.917046546936035156e+01,1.415955352783203125e+01,-4.692004776000976562e+01
2.721608734130859375e+01,1.724861145019531250e+01,-4.685166549682617188e+01
2.467930030822753906e+01,2.004288673400878906e+01,-4.706933593750000000e+01
2.988145446777343750e+01,1.374460506439208984e+01,-4.389281082153320312e+01
2.763473892211914062e+01,1.729556465148925781e+01,-4.381424331665039062e+01
2.471863174438476562e+01,2.050770759582519531e+01,-4.406444168090820312e+01
3.039267921447753906e+01,1.323781585693359375e+01,-4.057218551635742188e+01
2.786875152587890625e+01,1.722697639465332031e+01,-4.048390579223632812e+01
2.459276771545410156e+01,2.083547973632812500e+01,-4.076499938964843750e+01
3.070084953308105469e+01,1.264250659942626953e+01,-3.698049163818359375e+01
2.791652870178222656e+01,1.704326629638671875e+01,-3.688309478759765625e+01
2.430260086059570312e+01,2.102405929565429688e+01,-3.719317245483398438e+01
3.080319786071777344e+01,1.196255111694335938e+01,-3.314096450805664062e+01
2.777717971801757812e+01,1.674530982971191406e+01,-3.303511810302734375e+01
2.384949493408203125e+01,2.107165908813476562e+01,-3.337213134765625000e+01
3.069968414306640625e+01,1.120258712768554688e+01,-2.907996749877929688e+01
2.745218467712402344e+01,1.633542823791503906e+01,-2.896636772155761719e+01
2.323703193664550781e+01,2.097847366333007812e+01,-2.932803153991699219e+01
3.039106750488281250e+01,1.036776256561279297e+01,-2.482460594177246094e+01
2.694375419616699219e+01,1.581640529632568359e+01,-2.470401954650878906e+01
2.246927642822265625e+01,2.074508666992187500e+01,-2.508793830871582031e+01
2.987871360778808594e+01,9.463507652282714844e+00,-2.040277099609375000e+01
2.625469017028808594e+01,1.519136047363281250e+01,-2.027602577209472656e+01
2.155092811584472656e+01,2.037267875671386719e+01,-2.067959785461425781e+01
2.916666030883789062e+01,8.495962142944335938e+00,-1.584472560882568359e+01
2.539024162292480469e+01,1.446487140655517578e+01,-1.571260070800781250e+01
2.048856163024902344e+01,1.986411094665527344e+01,-1.613317680358886719e+01
2.825971794128417969e+01,7.471697330474853516e+00,-1.118068027496337891e+01
2.435607337951660156e+01,1.364156723022460938e+01,-1.104413795471191406e+01
1.928924942016601562e+01,1.922278022766113281e+01,-1.147886657714843750e+01
2.716333198547363281e+01,6.397274494171142578e+00,-6.441779136657714844e+00
2.315864944458007812e+01,1.272689151763916016e+01,-6.301689624786376953e+00
1.796061897277832031e+01,1.845256042480468750e+01,-6.747693538665771484e+00
2.588539314270019531e+01,5.280137062072753906e+00,-1.659669041633605957e+00
2.180639076232910156e+01,1.172720718383789062e+01,-1.516983032226562500e+00
1.651193809509277344e+01,1.755902481079101562e+01,-1.971275568008422852e+00
2.443452453613281250e+01,4.127731800079345703e+00,3.133353710174560547e+00
2.030852317810058594e+01,1.064916324615478516e+01,3.277702808380126953e+00
1.495300006866455078e+01,1.654821777343750000e+01,2.818162679672241211e+00
2.281988906860351562e+01,2.947587490081787109e+00,7.905442237854003906e+00
1.867444419860839844e+01,9.499637603759765625e+00,8.050443649291992188e+00
1.329379940032958984e+01,1.542646312713623047e+01,7.588771820068359375e+00
2.105271339416503906e+01,1.747763752937316895e+00,1.262469291687011719e+01
1.691561317443847656e+01,8.286653518676757812e+00,1.276941013336181641e+01
1.154573631286621094e+01,1.420159053802490234e+01,1.230865573883056641e+01
1.914480018615722656e+01,5.363012552261352539e-01,1.725958061218261719e+01
1.504370880126953125e+01,7.018369674682617188e+00,1.740306091308593750e+01
9.720553398132324219e+00,1.288185691833496094e+01,1.694631958007812500e+01
1.710866355895996094e+01,-6.788054704666137695e-01,2.177877998352050781e+01
1.307102489471435547e+01,5.702971935272216797e+00,2.192003822326660156e+01
7.830172538757324219e+00,1.147572422027587891e+01,2.147033882141113281e+01
1.495812797546386719e+01,-1.889348626136779785e+00,2.615248107910156250e+01
1.101091003417968750e+01,4.349452495574951172e+00,2.629056358337402344e+01
5.887479782104492188e+00,9.992929458618164062e+00,2.585095596313476562e+01
1.270769882202148438e+01,-3.087288618087768555e+00,3.035134124755859375e+01
8.877273559570312500e+00,2.966897964477539062e+00,3.048533248901367188e+01
3.905455112457275391e+00,8.443356513977050781e+00,3.005872917175292969e+01
