-1.180040168762207031e+01,1.466315937042236328e+01,-3.854443740844726562e+01
-7.323211431503295898e-01,1.976921463012695312e+01,-3.211337280273437500e+01
6.452130317687988281e+00,1.999605751037597656e+01,-3.092024993896484375e+01
-7.519797801971435547e+00,1.820815658569335938e+01,-3.323975753784179688e+01
-1.345101165771484375e+01,1.541845607757568359e+01,-3.422319412231445312e+01
-1.757983326911926270e+00,2.060457611083984375e+01,-2.747449111938476562e+01
5.728714466094970703e+00,2.084086608886718750e+01,-2.623117446899414062e+01
-8.831040382385253906e+00,1.897777748107910156e+01,-2.864826965332031250e+01
-1.501169872283935547e+01,1.607066726684570312e+01,-2.967306327819824219e+01
-2.771869421005249023e+00,2.130220985412597656e+01,-2.265222930908203125e+01
4.967055797576904297e+00,2.154645919799804688e+01,-2.136702537536621094e+01
-1.008327198028564453e+01,1.962061882019042969e+01,-2.386556243896484375e+01
-1.647217369079589844e+01,1.661560058593750000e+01,-2.492488479614257812e+01
-3.767190456390380859e+00,2.185693740844726562e+01,-1.767799949645996094e+01
4.172079563140869141e+00,2.210759353637695312e+01,-1.635952377319335938e+01
-1.126792049407958984e+01,2.013185501098632812e+01,-1.892275238037109375e+01
-1.782213592529296875e+01,1.704906082153320312e+01,-2.000948333740234375e+01
-4.737344741821289062e+00,2.226576995849609375e+01,-1.258560276031494141e+01
3.349216699600219727e+00,2.252097892761230469e+01,-1.124266624450683594e+01
-1.237707042694091797e+01,2.050859832763671875e+01,-1.385342121124267578e+01
-1.905300712585449219e+01,1.736858749389648438e+01,-1.496033477783203125e+01
-5.675837516784667969e+00,2.252572441101074219e+01,-7.409152984619140625e+00
2.503982543945312500e+00,2.278388977050781250e+01,-6.050729274749755859e+00
-1.340377712249755859e+01,2.074830818176269531e+01,-8.691611289978027344e+00
-2.015663528442382812e+01,1.757212257385253906e+01,-9.811278343200683594e+00
-6.576288223266601562e+00,2.263468170166015625e+01,-2.183025836944580078e+00
1.641960978507995605e+00,2.289406776428222656e+01,-8.182203173637390137e-01
-1.434049701690673828e+01,2.084896659851074219e+01,-3.471502780914306641e+00
-2.112508773803710938e+01,1.765781593322753906e+01,-4.596431732177734375e+00
-7.432774543762207031e+00,2.259242439270019531e+01,3.057698965072631836e+00
7.689630389213562012e-01,2.285120964050292969e+01,4.419762611389160156e+00
-1.518142032623291016e+01,2.081027793884277344e+01,1.771804571151733398e+00
-2.195228958129882812e+01,1.762544250488281250e+01,6.491508483886718750e-01
-8.239607810974121094e+00,2.239912796020507812e+01,8.277955055236816406e+00
-1.091607585549354553e-01,2.265576553344726562e+01,9.628178596496582031e+00
-1.592084312438964844e+01,2.063241386413574219e+01,7.003247261047363281e+00
-2.263290786743164062e+01,1.747538185119628906e+01,5.890343666076660156e+00
-8.991192817687988281e+00,2.205572509765625000e+01,1.344276428222656250e+01
-9.865652322769165039e-01,2.230836105346679688e+01,1.477209377288818359e+01
-1.655354690551757812e+01,2.031632995605468750e+01,1.218778514862060547e+01
-2.316175842285156250e+01,1.720812988281250000e+01,1.109210109710693359e+01
-9.682709693908691406e+00,2.156487083435058594e+01,1.851775169372558594e+01
-1.857373595237731934e+00,2.181196403503417969e+01,1.981730651855468750e+01
-1.707574844360351562e+01,1.986456680297851562e+01,1.729087066650390625e+01
-2.353585243225097656e+01,1.682590293884277344e+01,1.621974372863769531e+01
-1.030949306488037109e+01,2.092998313903808594e+01,2.346891021728515625e+01
-2.715760946273803711e+00,2.116972541809082031e+01,2.473000144958496094e+01
-1.748371505737304688e+01,1.927994728088378906e+01,2.227834129333496094e+01
-2.375263786315917969e+01,1.633122253417968750e+01,2.123891448974609375e+01
6.140627861022949219e+00,1.109032630920410156e+00,-6.393563079833984375e+01
3.857451677322387695e+00,3.179754257202148438e+00,-6.322289657592773438e+01
3.004657030105590820e+00,1.888533592224121094e+00,-6.336375808715820312e+01
2.645303249359130859e+00,4.676474332809448242e-01,-6.342258834838867188e+01
1.524223804473876953e+00,4.219429492950439453e+00,-6.208976364135742188e+01
3.960573375225067139e-01,2.511282444000244141e+00,-6.227611541748046875e+01
-7.931552827358245850e-02,6.315945982933044434e-01,-6.235393905639648438e+01
-8.191840648651123047e-01,5.230894088745117188e+00,-6.054166793823242188e+01
-2.215177059173583984e+00,3.117236137390136719e+00,-6.077225875854492188e+01
-2.803435564041137695e+00,7.913227081298828125e-01,-6.086856460571289062e+01
-3.157165050506591797e+00,6.207426071166992188e+00,-5.858907699584960938e+01
-4.811558246612548828e+00,3.702367305755615234e+00,-5.886235046386718750e+01
-5.508847713470458984e+00,9.457651376724243164e-01,-5.897650527954101562e+01
-5.473924160003662109e+00,7.142318725585937500e+00,-5.624359130859375000e+01
-7.375887870788574219e+00,4.262689590454101562e+00,-5.655775833129882812e+01
-8.177315711975097656e+00,1.093865275382995605e+00,-5.668896102905273438e+01
-7.754199981689453125e+00,8.029500007629394531e+00,-5.352238082885742188e+01
-9.890737533569335938e+00,4.794508457183837891e+00,-5.387528991699218750e+01
-1.079106616973876953e+01,1.234651923179626465e+00,-5.402268600463867188e+01
-9.982599258422851562e+00,8.863057136535644531e+00,-5.044364547729492188e+01
-1.233952617645263672e+01,5.294298648834228516e+00,-5.083296203613281250e+01
-1.333283424377441406e+01,1.367198109626770020e+00,-5.099557876586914062e+01
-1.214411163330078125e+01,9.637132644653320312e+00,-4.702651214599609375e+01
-1.470566749572753906e+01,5.758590698242187500e+00,-4.744963073730468750e+01
-1.578509235382080078e+01,1.490567922592163086e+00,-4.762634658813476562e+01
-1.422427940368652344e+01,1.034684467315673828e+01,-4.329513168334960938e+01
-1.697354888916015625e+01,6.184413433074951172e+00,-4.374925231933593750e+01
-1.813183403015136719e+01,1.603975057601928711e+00,-4.393888092041015625e+01
-1.620969200134277344e+01,1.098739528656005859e+01,-3.927456283569335938e+01
-1.912794876098632812e+01,6.568902492523193359e+00,-3.975659942626953125e+01
-2.035757255554199219e+01,1.706675410270690918e+00,-3.995790481567382812e+01
-1.808623886108398438e+01,1.155429649353027344e+01,-3.499073028564453125e+01
-2.115399932861328125e+01,6.909349918365478516e+00,-3.549746322631835938e+01
-2.244679832458496094e+01,1.797932505607604980e+00,-3.570911026000976562e+01
-1.984198570251464844e+01,1.204400730133056641e+01,-3.047290039062500000e+01
-2.303890419006347656e+01,7.203633785247802734e+00,-3.100096511840820312e+01
-2.438595390319824219e+01,1.877168536186218262e+00,-3.122149467468261719e+01
-2.146514892578125000e+01,1.245326709747314453e+01,-2.575166130065917969e+01
-2.476976013183593750e+01,7.449779987335205078e+00,-2.629751396179199219e+01
-2.616219139099121094e+01,1.943865180015563965e+00,-2.652547454833984375e+01
-2.294433403015136719e+01,1.277902698516845703e+01,-2.085765838623046875e+01
-2.633444595336914062e+01,7.645969390869140625e+00,-2.141763305664062500e+01
-2.776303672790527344e+01,1.997529029846191406e+00,-2.165151405334472656e+01
-2.427028083801269531e+01,1.301925086975097656e+01,-1.582425308227539062e+01
-2.772337913513183594e+01,7.791088104248046875e+00,-1.639463424682617188e+01
-2.917834472656250000e+01,2.037843465805053711e+00,-1.663282966613769531e+01
-2.543401527404785156e+01,1.317266941070556641e+01,-1.068515014648437500e+01
-2.892692756652832031e+01,7.884134292602539062e+00,-1.126210689544677734e+01
-3.039868927001953125e+01,2.064541578292846680e+00,-1.150305271148681641e+01
-2.642732238769531250e+01,1.323769474029541016e+01,-5.474419116973876953e+00
-2.993656921386718750e+01,7.924332141876220703e+00,-6.054073810577392578e+00
-3.141525650024414062e+01,2.077400207519531250e+00,-6.296154022216796875e+00
-2.724399375915527344e+01,1.321427822113037109e+01,-2.270926833152770996e-01
-3.074622154235839844e+01,7.911567687988281250e+00,-8.055877685546875000e-01
-3.222182464599609375e+01,2.076372385025024414e+00,-1.047163367271423340e+00
-2.787845802307128906e+01,1.310251045227050781e+01,5.021742820739746094e+00
-3.135031318664550781e+01,7.845941066741943359e+00,4.448264122009277344e+00
-3.281322860717773438e+01,2.061479568481445312e+00,4.208765506744384766e+00
-2.832616424560546875e+01,1.290292072296142578e+01,1.023693656921386719e+01
-3.174431800842285156e+01,7.727710723876953125e+00,9.672328948974609375e+00
-3.318455886840820312e+01,2.032759904861450195e+00,9.436542510986328125e+00
-2.858468437194824219e+01,1.261720275878906250e+01,1.538371753692626953e+01
-3.192610740661621094e+01,7.557840824127197266e+00,1.483178329467773438e+01
-3.333424758911132812e+01,1.990463852882385254e+00,1.460125255584716797e+01
-2.865203475952148438e+01,1.224707412719726562e+01,2.042763137817382812e+01
-3.189463996887207031e+01,7.337464332580566406e+00,1.989202117919921875e+01
-3.326105117797851562e+01,1.934859037399291992e+00,1.966832160949707031e+01
6.030773639678955078e+00,-6.044062376022338867e-01,-6.395285034179687500e+01
7.115506172180175781e+00,-2.168420553207397461e+00,-6.377174758911132812e+01
2.820208072662353516e+00,-9.883836507797241211e-01,-6.339266586303710938e+01
3.500965833663940430e+00,-2.380485296249389648e+00,-6.327876281738281250e+01
4.641526699066162109e+00,-3.614420175552368164e+00,-6.308858489990234375e+01
1.520503014326095581e-01,-1.294584274291992188e+00,-6.231435394287109375e+01
1.052630186080932617e+00,-3.136187314987182617e+00,-6.216366958618164062e+01
2.561449766159057617e+00,-4.768550872802734375e+00,-6.191209030151367188e+01
-2.517110109329223633e+00,-1.592123150825500488e+00,-6.081957626342773438e+01
-1.402732372283935547e+00,-3.870919942855834961e+00,-6.063312149047851562e+01
4.642362892627716064e-01,-5.890824317932128906e+00,-6.032182312011718750e+01
-5.169401168823242188e+00,-1.879036307334899902e+00,-5.891843032836914062e+01
-3.848770856857299805e+00,-4.579800128936767578e+00,-5.869746398925781250e+01
-1.636014342308044434e+00,-6.973696708679199219e+00,-5.832851028442382812e+01
-7.787241458892822266e+00,-2.153339385986328125e+00,-5.662222290039062500e+01
-6.268948078155517578e+00,-5.257961750030517578e+00,-5.636818313598632812e+01
-3.725395917892456055e+00,-8.009869575500488281e+00,-5.594407653808593750e+01
-1.035285186767578125e+01,-2.413257122039794922e+00,-5.394771194458007812e+01
-8.647331237792968750e+00,-5.900989055633544922e+00,-5.366234588623046875e+01
-5.789826869964599609e+00,-8.992491722106933594e+00,-5.318589019775390625e+01
-1.284931373596191406e+01,-2.657051801681518555e+00,-5.091285324096679688e+01
-1.096787357330322266e+01,-6.504621028900146484e+00,-5.059805297851562500e+01
-7.815589427947998047e+00,-9.915051460266113281e+00,-5.007244491577148438e+01
-1.525971126556396484e+01,-2.883023262023925781e+00,-4.753645706176757812e+01
-1.321491527557373047e+01,-7.064583301544189453e+00,-4.719432830810546875e+01
-9.788879394531250000e+00,-1.077106857299804688e+01,-4.662307357788085938e+01
-1.756814575195312500e+01,-3.089739084243774414e+00,-4.384243774414062500e+01
-1.537346363067626953e+01,-7.577395915985107422e+00,-4.347522735595703125e+01
-1.169678497314453125e+01,-1.155513000488281250e+01,-4.286218261718750000e+01
-1.975912666320800781e+01,-3.275806665420532227e+00,-3.985551452636718750e+01
-1.742957115173339844e+01,-8.039513587951660156e+00,-3.946574020385742188e+01
-1.352667045593261719e+01,-1.226207542419433594e+01,-3.881497192382812500e+01
-2.181752777099609375e+01,-3.439923524856567383e+00,-3.560144805908203125e+01
-1.936863899230957031e+01,-8.447770118713378906e+00,-3.519170379638671875e+01
-1.526575469970703125e+01,-1.288674545288085938e+01,-3.450759124755859375e+01
-2.373034477233886719e+01,-3.581037044525146484e+00,-3.110932540893554688e+01
-2.117833900451660156e+01,-8.799589157104492188e+00,-3.068232917785644531e+01
-1.690278244018554688e+01,-1.342525672912597656e+01,-2.996942710876464844e+01
-2.548449707031250000e+01,-3.698228120803833008e+00,-2.640952491760253906e+01
-2.284652900695800781e+01,-9.092633247375488281e+00,-2.596814727783203125e+01
-1.842697334289550781e+01,-1.387414741516113281e+01,-2.523123359680175781e+01
-2.706768417358398438e+01,-3.790629625320434570e+00,-2.153254508972167969e+01
-2.436148071289062500e+01,-9.324719429016113281e+00,-2.107974815368652344e+01
-1.982754135131835938e+01,-1.422995758056640625e+01,-2.032376289367675781e+01
-2.847022056579589844e+01,-3.857694864273071289e+00,-1.651167678833007812e+01
-2.571370315551757812e+01,-9.494342803955078125e+00,-1.605046081542968750e+01
-2.109561157226562500e+01,-1.449067592620849609e+01,-1.528044509887695312e+01
-2.968238258361816406e+01,-3.898987770080566406e+00,-1.138049888610839844e+01
-2.689409446716308594e+01,-9.600716590881347656e+00,-1.091396903991699219e+01
-2.222280120849609375e+01,-1.465462017059326172e+01,-1.013508129119873047e+01
-3.069557571411132812e+01,-3.914145946502685547e+00,-6.173022270202636719e+00
-2.789425849914550781e+01,-9.642633438110351562e+00,-5.704311847686767578e+00
-2.320095825195312500e+01,-1.472028827667236328e+01,-4.921754837036132812e+00
-3.150370216369628906e+01,-3.903132438659667969e+00,-9.242975711822509766e-01
-2.870798683166503906e+01,-9.620137214660644531e+00,-4.565244615077972412e-01
-2.402398490905761719e+01,-1.468752956390380859e+01,3.244820237159729004e-01
-3.210120773315429688e+01,-3.866055011749267578e+00,4.330586433410644531e+00
-2.932971954345703125e+01,-9.533327102661132812e+00,4.794306278228759766e+00
-2.468659400939941406e+01,-1.455670166015625000e+01,5.568497180938720703e+00
-3.248359298706054688e+01,-3.803044795989990234e+00,9.556471824645996094e+00
-2.975496673583984375e+01,-9.382606506347656250e+00,1.001301956176757812e+01
-2.518366241455078125e+01,-1.432825565338134766e+01,1.077523517608642578e+01
-3.264882278442382812e+01,-3.714632987976074219e+00,1.471852207183837891e+01
-2.998148918151855469e+01,-9.169266700744628906e+00,1.516481494903564453e+01
-2.551246643066406250e+01,-1.400407600402832031e+01,1.590997600555419922e+01
-3.259596633911132812e+01,-3.601383447647094727e+00,1.978211021423339844e+01
-3.000749778747558594e+01,-8.894577026367187500e+00,2.021520805358886719e+01
-2.567075157165527344e+01,-1.358630371093750000e+01,2.093831253051757812e+01
9.111545562744140625e+00,-3.158570528030395508e+00,-6.343963241577148438e+01
6.177395343780517578e+00,-4.599422931671142578e+00,-6.283290481567382812e+01
7.992946147918701172e+00,-5.276926994323730469e+00,-6.253095245361328125e+01
9.965271949768066406e+00,-5.601092815399169922e+00,-6.220317840576171875e+01
4.593242168426513672e+00,-6.071589946746826172e+00,-6.157384872436523438e+01
6.995022296905517578e+00,-6.967863082885742188e+00,-6.117440032958984375e+01
9.604207992553710938e+00,-7.396690368652343750e+00,-6.074078750610351562e+01
2.978405714035034180e+00,-7.503175258636474609e+00,-5.990327835083007812e+01
5.950364589691162109e+00,-8.612222671508789062e+00,-5.940900421142578125e+01
9.178955078125000000e+00,-9.142875671386718750e+00,-5.887245178222656250e+01
1.343647837638854980e+00,-8.884660720825195312e+00,-5.783247375488281250e+01
4.865940093994140625e+00,-1.019900131225585938e+01,-5.724666976928710938e+01
8.692373275756835938e+00,-1.082799053192138672e+01,-5.661076354980468750e+01
-3.001036047935485840e-01,-1.020653057098388672e+01,-5.537385177612304688e+01
3.748870372772216797e+00,-1.171754264831542969e+01,-5.470045471191406250e+01
8.147501945495605469e+00,-1.244049358367919922e+01,-5.396945571899414062e+01
-1.941850423812866211e+00,-1.146027755737304688e+01,-5.254529953002929688e+01
2.606783151626586914e+00,-1.315765571594238281e+01,-5.178880310058593750e+01
7.548203945159912109e+00,-1.396982192993164062e+01,-5.096759796142578125e+01
-3.570644617080688477e+00,-1.263741683959960938e+01,-4.936576843261718750e+01
1.447287559509277344e+00,-1.450988578796386719e+01,-4.853121948242187500e+01
6.898483276367187500e+00,-1.540590858459472656e+01,-4.762529754638671875e+01
-5.175450325012207031e+00,-1.372983360290527344e+01,-4.585505294799804688e+01
2.780613899230957031e-01,-1.576486778259277344e+01,-4.494806289672851562e+01
6.202485561370849609e+00,-1.673859405517578125e+01,-4.396349716186523438e+01
-6.745723247528076172e+00,-1.473036575317382812e+01,-4.203795623779296875e+01
-8.930330872535705566e-01,-1.691451644897460938e+01,-4.106457519531250000e+01
5.465046405792236328e+00,-1.795940589904785156e+01,-4.000794219970703125e+01
-8.270864486694335938e+00,-1.563268852233886719e+01,-3.794001388549804688e+01
-2.058139562606811523e+00,-1.795110130310058594e+01,-3.690675735473632812e+01
4.691092967987060547e+00,-1.906033325195312500e+01,-3.578511810302734375e+01
-9.740572929382324219e+00,-1.643007850646972656e+01,-3.358779144287109375e+01
-3.209437131881713867e+00,-1.886726760864257812e+01,-3.250157546997070312e+01
3.885701894760131836e+00,-2.003345870971679688e+01,-3.132245063781738281e+01
-1.114524364471435547e+01,-1.711769294738769531e+01,-2.901094436645507812e+01
-4.339320659637451172e+00,-1.965748405456542969e+01,-2.787902832031250000e+01
3.054319620132446289e+00,-2.087264251708984375e+01,-2.665029525756835938e+01
-1.247544384002685547e+01,-1.769095230102539062e+01,-2.424045562744140625e+01
-5.440173625946044922e+00,-2.031630325317382812e+01,-2.307039642333984375e+01
2.202559471130371094e+00,-2.157239913940429688e+01,-2.180026817321777344e+01
-1.372201442718505859e+01,-1.814554405212402344e+01,-1.930734825134277344e+01
-6.504560947418212891e+00,-2.083882713317871094e+01,-1.810699081420898438e+01
1.336016178131103516e+00,-2.212752151489257812e+01,-1.680398178100585938e+01
-1.487669467926025391e+01,-1.847894287109375000e+01,-1.424515438079833984e+01
-7.525509834289550781e+00,-2.122225379943847656e+01,-1.302255439758300781e+01
4.605402350425720215e-01,-2.253476142883300781e+01,-1.169536972045898438e+01
-1.593222618103027344e+01,-1.868883514404296875e+01,-9.087861061096191406e+00
-8.496153831481933594e+00,-2.146378135681152344e+01,-7.851143360137939453e+00
-4.180064201354980469e-01,-2.279143714904785156e+01,-6.508653640747070312e+00
-1.688082695007324219e+01,-1.877350044250488281e+01,-3.869614839553833008e+00
-9.409851074218750000e+00,-2.156142425537109375e+01,-2.627091884613037109e+00
-1.293752670288085938e+00,-2.289532852172851562e+01,-1.278295278549194336e+00
-1.771665382385253906e+01,-1.873268318176269531e+01,1.374491453170776367e+00
-1.026065349578857422e+01,-2.151503181457519531e+01,2.614523410797119141e+00
-1.843402481079101562e+01,-1.856658172607421875e+01,6.609390258789062500e+00
-1.104289627075195312e+01,-2.132479476928710938e+01,7.838633060455322266e+00
-1.902783775329589844e+01,-1.827610778808593750e+01,1.180002212524414062e+01
-1.175110721588134766e+01,-2.099165534973144531e+01,1.301023960113525391e+01
-3.845973968505859375e+00,-2.229087638854980469e+01,1.432397651672363281e+01
-1.949462890625000000e+01,-1.786357116699218750e+01,1.691179275512695312e+01
-1.238079738616943359e+01,-2.051817512512207031e+01,1.809491729736328125e+01
-4.652741909027099609e+00,-2.178841018676757812e+01,1.937922477722167969e+01
-1.983100318908691406e+01,-1.733156585693359375e+01,2.191048240661621094e+01
-1.292773246765136719e+01,-1.990765571594238281e+01,2.305858802795410156e+01
-5.428397655487060547e+00,-2.114026069641113281e+01,2.430488586425781250e+01
1.147569274902343750e+01,-3.314090251922607422e+00,-6.304687881469726562e+01
1.358139610290527344e+01,-2.593763589859008789e+00,-6.269757843017578125e+01
1.196242332458496094e+01,-5.538049697875976562e+00,-6.187150955200195312e+01
1.384923362731933594e+01,-5.104096412658691406e+00,-6.155839157104492188e+01
1.549797439575195312e+01,-4.328585624694824219e+00,-6.128501892089843750e+01
1.224623394012451172e+01,-7.313301086425781250e+00,-6.030202484130859375e+01
1.474228286743164062e+01,-6.739220142364501953e+00,-5.988780212402343750e+01
1.692339134216308594e+01,-5.713316917419433594e+00,-5.952616119384765625e+01
1.244818496704101562e+01,-9.039666175842285156e+00,-5.832952880859375000e+01
1.553679275512695312e+01,-8.329298019409179688e+00,-5.781697082519531250e+01
1.823572158813476562e+01,-7.059878826141357422e+00,-5.736947250366210938e+01
1.256697940826416016e+01,-1.070559597015380859e+01,-5.596730422973632812e+01
1.622751235961914062e+01,-9.863759994506835938e+00,-5.535983657836914062e+01
1.942615318298339844e+01,-8.359220504760742188e+00,-5.482948303222656250e+01
1.260149765014648438e+01,-1.229989147186279297e+01,-5.322977828979492188e+01
1.680940055847167969e+01,-1.133203887939453125e+01,-5.253147506713867188e+01
2.048641014099121094e+01,-9.602584838867187500e+00,-5.192180252075195312e+01
1.255182266235351562e+01,-1.381186676025390625e+01,-5.013664627075195312e+01
1.727898406982421875e+01,-1.272467422485351562e+01,-4.935216903686523438e+01
2.140974617004394531e+01,-1.078175067901611328e+01,-4.866726303100585938e+01
1.241830253601074219e+01,-1.523158740997314453e+01,-4.670862197875976562e+01
1.763317871093750000e+01,-1.403225898742675781e+01,-4.584320831298828125e+01
2.219008064270019531e+01,-1.188890266418457031e+01,-4.508764648437500000e+01
1.220147991180419922e+01,-1.654922103881835938e+01,-4.296724319458007812e+01
1.786903381347656250e+01,-1.524575901031494141e+01,-4.202670669555664062e+01
2.282151222229003906e+01,-1.291626453399658203e+01,-4.120555496215820312e+01
1.190314102172851562e+01,-1.775628089904785156e+01,-3.893876647949218750e+01
1.798556137084960938e+01,-1.635725402832031250e+01,-3.792938232421875000e+01
2.330047416687011719e+01,-1.385734081268310547e+01,-3.704813385009765625e+01
1.152526950836181641e+01,-1.884465217590332031e+01,-3.465016555786132812e+01
1.798184394836425781e+01,-1.735966110229492188e+01,-3.357868957519531250e+01
2.362388992309570312e+01,-1.470593547821044922e+01,-3.264320373535156250e+01
1.107015323638916016e+01,-1.980661582946777344e+01,-3.012932777404785156e+01
1.785762977600097656e+01,-1.824555969238281250e+01,-2.900294113159179688e+01
2.378884315490722656e+01,-1.545585823059082031e+01,-2.801950645446777344e+01
1.054101753234863281e+01,-2.063635253906250000e+01,-2.540697860717773438e+01
1.761407470703125000e+01,-1.900955390930175781e+01,-2.423320007324218750e+01
2.379473304748535156e+01,-1.610244560241699219e+01,-2.320840644836425781e+01
9.941484451293945312e+00,-2.132814788818359375e+01,-2.051506423950195312e+01
1.725288772583007812e+01,-1.964655876159667969e+01,-1.930172920227050781e+01
2.364178848266601562e+01,-1.664154052734375000e+01,-1.824240875244140625e+01
9.275285720825195312e+00,-2.187686538696289062e+01,-1.548550605773925781e+01
1.677601623535156250e+01,-2.015178298950195312e+01,-1.424075412750244141e+01
2.333023262023925781e+01,-1.706898880004882812e+01,-1.315402221679687500e+01
8.547101974487304688e+00,-2.227955245971679688e+01,-1.035243415832519531e+01
1.618682861328125000e+01,-2.052238273620605469e+01,-9.084614753723144531e+00
2.286276435852050781e+01,-1.738237190246582031e+01,-7.977701663970947266e+00
7.761813640594482422e+00,-2.253327178955078125e+01,-5.150229930877685547e+00
1.548975276947021484e+01,-2.075585365295410156e+01,-3.867771863937377930e+00
2.224261093139648438e+01,-1.757966995239257812e+01,-2.748104333877563477e+00
6.924496650695800781e+00,-2.263594055175781250e+01,8.651018142700195312e-02
1.468870544433593750e+01,-2.085022735595703125e+01,1.374987244606018066e+00
2.147329521179199219e+01,-1.765907669067382812e+01,2.499916076660156250e+00
6.040885925292968750e+00,-2.258738899230957031e+01,5.322675228118896484e+00
1.378953170776367188e+01,-2.080524253845214844e+01,6.608569622039794922e+00
2.056040191650390625e+01,-1.762040710449218750e+01,7.731223583221435547e+00
1.279817008972167969e+01,-2.062111663818359375e+01,1.179795074462890625e+01
1.951023483276367188e+01,-1.746408462524414062e+01,1.291085433959960938e+01
4.158654212951660156e+00,-2.203824043273925781e+01,1.565330600738525391e+01
1.172100734710693359e+01,-2.029884719848632812e+01,1.690828514099121094e+01
1.832921981811523438e+01,-1.719064712524414062e+01,1.800396919250488281e+01
3.172594785690307617e+00,-2.154131889343261719e+01,2.067877960205078125e+01
1.056563377380371094e+01,-1.984101295471191406e+01,2.190566062927246094e+01
1.702573585510253906e+01,-1.680234909057617188e+01,2.297678756713867188e+01
2.165333986282348633e+00,-2.090051651000976562e+01,2.556597709655761719e+01
9.339556694030761719e+00,-1.925048065185546875e+01,2.675654602050781250e+01
1.560847854614257812e+01,-1.630175781250000000e+01,2.779597473144531250e+01
1.485672378540039062e+01,-1.185000061988830566e+00,-6.248660659790039062e+01
1.678651428222656250e+01,-3.254443168640136719e+00,-6.107165145874023438e+01
1.763930892944335938e+01,-1.963222503662109375e+00,-6.093078994750976562e+01
1.799866294860839844e+01,-5.423363447189331055e-01,-6.087195968627929688e+01
1.862797164916992188e+01,-4.292338848114013672e+00,-5.924390411376953125e+01
1.975613784790039062e+01,-2.584192037582397461e+00,-5.905755233764648438e+01
2.023151016235351562e+01,-7.045043110847473145e-01,-5.897972869873046875e+01
2.034492683410644531e+01,-5.301537513732910156e+00,-5.702021408081054688e+01
2.174092102050781250e+01,-3.187879323959350586e+00,-5.678962326049804688e+01
2.232917785644531250e+01,-8.619659543037414551e-01,-5.669331741333007812e+01
2.192599678039550781e+01,-6.275331020355224609e+00,-5.441553878784179688e+01
2.358038902282714844e+01,-3.770272254943847656e+00,-5.414226531982421875e+01
2.427767944335937500e+01,-1.013669848442077637e+00,-5.402811050415039062e+01
2.335998344421386719e+01,-7.207029819488525391e+00,-5.144597244262695312e+01
2.526194763183593750e+01,-4.327400684356689453e+00,-5.113180541992187500e+01
2.606337547302246094e+01,-1.158576250076293945e+00,-5.100060272216796875e+01
2.463799667358398438e+01,-8.090584754943847656e+00,-4.813270187377929688e+01
2.677453613281250000e+01,-4.855593204498291016e+00,-4.777979278564453125e+01
2.767486381530761719e+01,-1.295736789703369141e+00,-4.763239669799804688e+01
2.575135803222656250e+01,-8.920107841491699219e+00,-4.449794006347656250e+01
2.810828590393066406e+01,-5.351348876953125000e+00,-4.410862350463867188e+01
2.910159301757812500e+01,-1.424248695373535156e+00,-4.394600677490234375e+01
2.669204330444335938e+01,-9.689766883850097656e+00,-4.056464004516601562e+01
2.925360107421875000e+01,-5.811224460601806641e+00,-4.014152526855468750e+01
3.033302497863769531e+01,-1.543201565742492676e+00,-3.996480941772460938e+01
2.745418167114257812e+01,-1.039470958709716797e+01,-3.636033248901367188e+01
3.020344924926757812e+01,-6.232278823852539062e+00,-3.590620803833007812e+01
3.136173439025878906e+01,-1.651840329170227051e+00,-3.571658325195312500e+01
2.803318023681640625e+01,-1.103017139434814453e+01,-3.191307640075683594e+01
3.095143699645996094e+01,-6.611679077148437500e+00,-3.143103981018066406e+01
3.218106079101562500e+01,-1.749452233314514160e+00,-3.122973632812500000e+01
2.842407035827636719e+01,-1.159169864654541016e+01,-2.725196838378906250e+01
3.149183273315429688e+01,-6.946751594543457031e+00,-2.674523925781250000e+01
3.278462982177734375e+01,-1.835334300994873047e+00,-2.653359031677246094e+01
2.862501907348632812e+01,-1.207578372955322266e+01,-2.240856742858886719e+01
3.182193756103515625e+01,-7.235410690307617188e+00,-2.188050270080566406e+01
3.316898727416992188e+01,-1.908945083618164062e+00,-2.165997314453125000e+01
2.863476371765136719e+01,-1.247920608520507812e+01,-1.741563224792480469e+01
3.193937492370605469e+01,-7.475719451904296875e+00,-1.686977958679199219e+01
3.333180618286132812e+01,-1.969804525375366211e+00,-1.664181900024414062e+01
2.845242881774902344e+01,-1.279895496368408203e+01,-1.230584716796875000e+01
3.184254074096679688e+01,-7.665897369384765625e+00,-1.174587154388427734e+01
3.327113342285156250e+01,-2.017457008361816406e+00,-1.151199245452880859e+01
2.808003807067871094e+01,-1.303303432464599609e+01,-7.113782882690429688e+00
3.153313446044921875e+01,-7.804871559143066406e+00,-6.543403148651123047e+00
3.298810195922851562e+01,-2.051626920700073242e+00,-6.305205821990966797e+00
2.751999092102050781e+01,-1.318021678924560547e+01,-1.874233007431030273e+00
3.101290321350097656e+01,-7.891681194305419922e+00,-1.297276496887207031e+00
3.248466491699218750e+01,-2.072088718414306641e+00,-1.056329965591430664e+00
2.677553176879882812e+01,-1.323895454406738281e+01,3.377903461456298828e+00
3.028477859497070312e+01,-7.925591945648193359e+00,3.957558155059814453e+00
3.176346397399902344e+01,-2.078660011291503906e+00,4.199638366699218750e+00
2.585210609436035156e+01,-1.320924186706542969e+01,8.607466697692871094e+00
2.935433197021484375e+01,-7.906531810760498047e+00,9.185961723327636719e+00
3.082993888854980469e+01,-2.071336507797241211e+00,9.427537918090820312e+00
2.475578498840332031e+01,-1.309121227264404297e+01,1.377945518493652344e+01
2.822764015197753906e+01,-7.834643363952636719e+00,1.435293292999267578e+01
2.969055747985839844e+01,-2.050181865692138672e+00,1.459243202209472656e+01
2.349362564086914062e+01,-1.288543701171875000e+01,1.885913276672363281e+01
2.691177940368652344e+01,-7.710227012634277344e+00,1.942374229431152344e+01
2.835201835632324219e+01,-2.015275955200195312e+00,1.965952682495117188e+01
2.207456779479980469e+01,-1.259364986419677734e+01,2.381281471252441406e+01
2.541599273681640625e+01,-7.534287452697753906e+00,2.436474800109863281e+01
2.682413291931152344e+01,-1.966910600662231445e+00,2.459527969360351562e+01
2.050787734985351562e+01,-1.221760940551757812e+01,2.860725593566894531e+01
2.375048255920410156e+01,-7.307999134063720703e+00,2.914286804199218750e+01
2.511689376831054688e+01,-1.905393838882446289e+00,2.936656761169433594e+01
1.496657752990722656e+01,5.284388065338134766e-01,-6.246939086914062500e+01
1.388184547424316406e+01,2.092453241348266602e+00,-6.265049362182617188e+01
1.782375717163085938e+01,9.136946797370910645e-01,-6.090188217163085938e+01
1.714299964904785156e+01,2.305796384811401367e+00,-6.101578521728515625e+01
1.600243949890136719e+01,3.539731264114379883e+00,-6.120596313476562500e+01
2.000014495849609375e+01,1.221674561500549316e+00,-5.901931381225585938e+01
1.909956550598144531e+01,3.063277721405029297e+00,-5.916999816894531250e+01
1.759074592590332031e+01,4.695641517639160156e+00,-5.942157745361328125e+01
2.204285240173339844e+01,1.521479845046997070e+00,-5.674230575561523438e+01
2.092847633361816406e+01,3.800276756286621094e+00,-5.692876052856445312e+01
1.906150627136230469e+01,5.820180892944335938e+00,-5.724005889892578125e+01
2.393823242187500000e+01,1.811131596565246582e+00,-5.408618545532226562e+01
2.261760139465332031e+01,4.511895179748535156e+00,-5.430715179443359375e+01
2.040484619140625000e+01,6.905791759490966797e+00,-5.467610549926757812e+01
2.567329978942871094e+01,2.088628292083740234e+00,-5.106734085083007812e+01
2.415500640869140625e+01,5.193250656127929688e+00,-5.132138061523437500e+01
2.161145401000976562e+01,7.945158481597900391e+00,-5.174548721313476562e+01
2.723665046691894531e+01,2.352172374725341797e+00,-4.770737075805664062e+01
2.553112792968750000e+01,5.839904308319091797e+00,-4.799273300170898438e+01
2.267362403869628906e+01,8.931406974792480469e+00,-4.846919250488281250e+01
2.861807250976562500e+01,2.600001335144042969e+00,-4.402873229980468750e+01
2.673663330078125000e+01,6.447570323944091797e+00,-4.434353256225585938e+01
2.358434867858886719e+01,9.858000755310058594e+00,-4.486914062500000000e+01
2.980764389038085938e+01,2.830389499664306641e+00,-4.005469512939453125e+01
2.776284790039062500e+01,7.011949539184570312e+00,-4.039682769775390625e+01
2.433681297302246094e+01,1.071843528747558594e+01,-4.096808242797851562e+01
3.079804611206054688e+01,3.041873931884765625e+00,-3.581302642822265625e+01
2.860336494445800781e+01,7.529531002044677734e+00,-3.618023681640625000e+01
2.492668533325195312e+01,1.150726509094238281e+01,-3.679328155517578125e+01
3.158261489868164062e+01,3.233029842376708984e+00,-3.133212471008300781e+01
2.925305938720703125e+01,7.996737003326416016e+00,-3.172190093994140625e+01
2.535015869140625000e+01,1.221929836273193359e+01,-3.237266921997070312e+01
3.215535736083984375e+01,3.402521610260009766e+00,-2.664125251770019531e+01
2.970647048950195312e+01,8.410367965698242188e+00,-2.705099487304687500e+01
2.560358619689941406e+01,1.284934329986572266e+01,-2.773510742187500000e+01
3.251337814331054688e+01,3.549260377883911133e+00,-2.177214241027832031e+01
2.996137237548828125e+01,8.767812728881835938e+00,-2.219913864135742188e+01
2.568581771850585938e+01,1.339347934722900391e+01,-2.291204261779785156e+01
3.265410995483398438e+01,3.672288656234741211e+00,-1.675776672363281250e+01
3.001614570617675781e+01,9.066694259643554688e+00,-1.719914627075195312e+01
2.559659004211425781e+01,1.384820842742919922e+01,-1.793605995178222656e+01
3.257577896118164062e+01,3.770701646804809570e+00,-1.163096046447753906e+01
2.986957550048828125e+01,9.304790496826171875e+00,-1.208375740051269531e+01
2.533563613891601562e+01,1.421002960205078125e+01,-1.283974266052246094e+01
3.227997970581054688e+01,3.843911409378051758e+00,-6.426360130310058594e+00
2.952346038818359375e+01,9.480558395385742188e+00,-6.887574672698974609e+00
2.490536880493164062e+01,1.447689247131347656e+01,-7.657591819763183594e+00
3.176836013793945312e+01,3.891440629959106445e+00,-1.178884029388427734e+00
2.898007011413574219e+01,9.593170166015625000e+00,-1.645414471626281738e+00
2.430877876281738281e+01,1.464707279205322266e+01,-2.424302101135253906e+00
3.104378318786621094e+01,3.912886142730712891e+00,4.076506614685058594e+00
2.824246788024902344e+01,9.641373634338378906e+00,3.607796430587768555e+00
2.354916572570800781e+01,1.471902847290039062e+01,2.825239181518554688e+00
3.011181259155273438e+01,3.908168315887451172e+00,9.304672241210937500e+00
2.731609725952148438e+01,9.625173568725585938e+00,8.836898803710937500e+00
2.263209533691406250e+01,1.469256591796875000e+01,8.055891990661621094e+00
2.897853469848632812e+01,3.877352714538574219e+00,1.447061061859130859e+01
2.620704460144042969e+01,9.544625282287597656e+00,1.400689125061035156e+01
2.156392097473144531e+01,1.456799983978271484e+01,1.323270034790039062e+01
2.765105628967285156e+01,3.820528745651245117e+00,1.953959846496582031e+01
2.492242622375488281e+01,9.400090217590332031e+00,1.908304977416992188e+01
2.035112380981445312e+01,1.434574031829833984e+01,1.832083511352539062e+01
2.613870811462402344e+01,3.738186120986938477e+00,2.447801017761230469e+01
2.347137260437011719e+01,9.192820549011230469e+00,2.403171730041503906e+01
1.900235176086425781e+01,1.402762985229492188e+01,2.328655624389648438e+01
2.445180892944335938e+01,3.630848646163940430e+00,2.925277709960937500e+01
2.186334037780761719e+01,8.924041748046875000e+00,2.881967926025390625e+01
1.752659225463867188e+01,1.361576843261718750e+01,2.809657478332519531e+01
1.188580608367919922e+01,3.082603216171264648e+00,-6.298260879516601562e+01
1.446656990051269531e+01,4.524734020233154297e+00,-6.146164321899414062e+01
1.265101909637451172e+01,5.202238082885742188e+00,-6.176359558105468750e+01
1.555895328521728516e+01,5.998680114746093750e+00,-5.975981903076171875e+01
1.315717315673828125e+01,6.894953250885009766e+00,-6.015926742553710938e+01
1.654733657836914062e+01,7.432531833648681641e+00,-5.765860366821289062e+01
1.357537841796875000e+01,8.541580200195312500e+00,-5.815287780761718750e+01
1.742518234252929688e+01,8.816755294799804688e+00,-5.517214202880859375e+01
1.390289115905761719e+01,1.013109683990478516e+01,-5.575794601440429688e+01
1.818616294860839844e+01,1.014181995391845703e+01,-5.231571197509765625e+01
1.413718891143798828e+01,1.165283203125000000e+01,-5.298910903930664062e+01
1.882564735412597656e+01,1.139919281005859375e+01,-4.910978317260742188e+01
1.427701473236083984e+01,1.309657096862792969e+01,-4.986627960205078125e+01
1.933940315246582031e+01,1.258036613464355469e+01,-4.557581329345703125e+01
1.432147121429443359e+01,1.445283508300781250e+01,-4.641036224365234375e+01
1.972338294982910156e+01,1.367719936370849609e+01,-4.173609924316406250e+01
1.426987171173095703e+01,1.571223449707031250e+01,-4.264308929443359375e+01
1.997562408447265625e+01,1.468250083923339844e+01,-3.761750793457031250e+01
1.412293434143066406e+01,1.686665153503417969e+01,-3.859088516235351562e+01
2.009435272216796875e+01,1.558991241455078125e+01,-3.324762344360351562e+01
1.388162803649902344e+01,1.790832328796386719e+01,-3.428088378906250000e+01
2.007840347290039062e+01,1.639267539978027344e+01,-2.865490913391113281e+01
1.354726886749267578e+01,1.882986640930175781e+01,-2.974112319946289062e+01
1.992827796936035156e+01,1.708591651916503906e+01,-2.387052536010742188e+01
1.312235450744628906e+01,1.962570762634277344e+01,-2.500244140625000000e+01
1.964505958557128906e+01,1.766501235961914062e+01,-1.892683792114257812e+01
1.260978889465332031e+01,2.029036331176757812e+01,-2.009689712524414062e+01
1.923011016845703125e+01,1.812561607360839844e+01,-1.385615634918212891e+01
1.201265621185302734e+01,2.081889915466308594e+01,-1.505651473999023438e+01
1.868645095825195312e+01,1.846516036987304688e+01,-8.692882537841796875e+00
1.133526706695556641e+01,2.120847129821777344e+01,-9.915482521057128906e+00
1.801820182800292969e+01,1.868128776550292969e+01,-3.471522092819213867e+00
1.058213043212890625e+01,2.145623397827148438e+01,-4.708239555358886719e+00
1.722903633117675781e+01,1.877224159240722656e+01,1.773099303245544434e+00
9.758058547973632812e+00,2.156016540527343750e+01,5.305763483047485352e-01
1.632476615905761719e+01,1.873771858215332031e+01,7.005882740020751953e+00
8.868764877319335938e+00,2.152006721496582031e+01,5.765851020812988281e+00
1.531135082244873047e+01,1.857787895202636719e+01,1.219180774688720703e+01
7.920223236083984375e+00,2.133609390258789062e+01,1.096256446838378906e+01
1.419529914855957031e+01,1.829359245300292969e+01,1.729604721069335938e+01
6.918567657470703125e+00,2.100914001464843750e+01,1.608583068847656250e+01
1.298451232910156250e+01,1.788712310791015625e+01,2.228473854064941406e+01
5.870681762695312500e+00,2.054172897338867188e+01,2.110161399841308594e+01
1.168684577941894531e+01,1.736103057861328125e+01,2.712440490722656250e+01
4.783573627471923828e+00,1.993712234497070312e+01,2.597629928588867188e+01
1.119900894165039062e+01,-4.051750153303146362e-02,-6.742773437500000000e+01
9.754810333251953125e+00,4.300837516784667969e+00,-6.674423217773437500e+01
6.964762210845947266e+00,3.346412897109985352e+00,-6.720705413818359375e+01
8.689803123474121094e+00,7.249070644378662109e+00,-6.577231597900390625e+01
1.133601474761962891e+01,7.332615852355957031e+00,-6.533286285400390625e+01
6.189791679382324219e+00,6.674098014831542969e+00,-6.618719482421875000e+01
4.005216121673583984e+00,5.646566867828369141e+00,-6.654940795898437500e+01
7.729197978973388672e+00,9.603342056274414062e+00,-6.433225250244140625e+01
1.122985076904296875e+01,9.713884353637695312e+00,-6.375089645385742188e+01
4.421957015991210938e+00,8.842724800109863281e+00,-6.488108825683593750e+01
1.531956434249877930e+00,7.483458518981933594e+00,-6.536026763916015625e+01
6.716934680938720703e+00,1.189351844787597656e+01,-6.246224212646484375e+01
1.104863929748535156e+01,1.203026485443115234e+01,-6.174287414550781250e+01
2.624545574188232422e+00,1.095227050781250000e+01,-6.314137649536132812e+01
-9.514887332916259766e-01,9.270293235778808594e+00,-6.373430633544921875e+01
5.659789562225341797e+00,1.410422706604003906e+01,-6.017487335205078125e+01
1.079360294342041016e+01,1.426626777648925781e+01,-5.932229995727539062e+01
8.096576929092407227e-01,1.298867034912109375e+01,-6.097975921630859375e+01
-3.428698778152465820e+00,1.099528789520263672e+01,-6.168250656127929688e+01
4.564697265625000000e+00,1.622025871276855469e+01,-5.748406982421875000e+01
1.046619892120361328e+01,1.640657997131347656e+01,-5.650400543212890625e+01
-1.010768413543701172e+00,1.493800830841064453e+01,-5.840932083129882812e+01
-5.882745742797851562e+00,1.264641857147216797e+01,-5.921712875366210938e+01
3.439082860946655273e+00,1.822802925109863281e+01,-5.440903472900390625e+01
1.006884098052978516e+01,1.843728828430175781e+01,-5.330803298950195312e+01
-2.824377298355102539e+00,1.678749656677246094e+01,-5.544846343994140625e+01
-8.297557830810546875e+00,1.421309185028076172e+01,-5.635594940185546875e+01
2.290498495101928711e+00,2.011395072937011719e+01,-5.097046279907226562e+01
9.604210853576660156e+00,2.034484672546386719e+01,-4.975587463378906250e+01
-4.619196891784667969e+00,1.852476119995117188e+01,-5.211713409423828125e+01
-1.065694332122802734e+01,1.568480968475341797e+01,-5.311823272705078125e+01
1.126570940017700195e+00,2.186500930786132812e+01,-4.719029998779296875e+01
9.075203895568847656e+00,2.211589431762695312e+01,-4.587026977539062500e+01
-6.382913589477539062e+00,2.013788032531738281e+01,-4.843650436401367188e+01
-1.294486904144287109e+01,1.705138015747070312e+01,-4.952451705932617188e+01
-4.489050805568695068e-02,2.346991920471191406e+01,-4.309474563598632812e+01
8.485550880432128906e+00,2.373922348022460938e+01,-4.167809677124023438e+01
-8.104034423828125000e+00,2.161636161804199219e+01,-4.443216705322265625e+01
-1.514632892608642578e+01,1.830402946472167969e+01,-4.559982681274414062e+01
-1.216049551963806152e+00,2.491803550720214844e+01,-3.871119689941406250e+01
7.839189529418945312e+00,2.520389366149902344e+01,-3.720739364624023438e+01
-9.771045684814453125e+00,2.295044136047363281e+01,-4.013090896606445312e+01
-1.724649810791015625e+01,1.943430137634277344e+01,-4.137038421630859375e+01
-2.379055023193359375e+00,2.619913101196289062e+01,-3.406809616088867188e+01
7.140276432037353516e+00,2.649971771240234375e+01,-3.248722076416015625e+01
-1.137249660491943359e+01,2.413077545166015625e+01,-3.556056594848632812e+01
-1.923111152648925781e+01,2.043433380126953125e+01,-3.686357498168945312e+01
-3.526121854782104492e+00,2.730523681640625000e+01,-2.919744300842285156e+01
6.393661499023437500e+00,2.761837196350097656e+01,-2.755006217956542969e+01
-1.289793395996093750e+01,2.514969635009765625e+01,-3.075270271301269531e+01
-2.108717536926269531e+01,2.129779624938964844e+01,-3.211053085327148438e+01
-4.649750232696533203e+00,2.822871017456054688e+01,-2.413159370422363281e+01
5.604303836822509766e+00,2.855246353149414062e+01,-2.242870140075683594e+01
-1.433717346191406250e+01,2.600068664550781250e+01,-2.573922920227050781e+01
-2.280238723754882812e+01,2.201897430419921875e+01,-2.714281654357910156e+01
-5.742135047912597656e+00,2.896300697326660156e+01,-1.890404319763183594e+01
4.777385234832763672e+00,2.929507064819335938e+01,-1.715706634521484375e+01
-1.568034744262695312e+01,2.667726325988769531e+01,-2.055329895019531250e+01
-2.436473083496093750e+01,2.259255027770996094e+01,-2.199322509765625000e+01
-6.796075820922851562e+00,2.950380897521972656e+01,-1.354998874664306641e+01
3.918517827987670898e+00,2.984196853637695312e+01,-1.177061462402343750e+01
-1.691871070861816406e+01,2.717565536499023438e+01,-1.522984790802001953e+01
-2.576427841186523438e+01,2.301514434814453125e+01,-1.669650077819824219e+01
-7.804654598236083984e+00,2.984746742248535156e+01,-8.105595588684082031e+00
3.033500671386718750e+00,3.018949508666992188e+01,-6.305701732635498047e+00
-1.804399871826171875e+01,2.749241256713867188e+01,-9.804822921752929688e+00
-2.699155426025390625e+01,2.328388404846191406e+01,-1.128838539123535156e+01
-8.760954856872558594e+00,2.999090576171875000e+01,-2.606796026229858398e+00
2.128136157989501953e+00,3.033464622497558594e+01,-7.984437942504882812e-01
-1.904844284057617188e+01,2.762487030029296875e+01,-4.314013957977294922e+00
-2.803799629211425781e+01,2.339661598205566406e+01,-5.804539680480957031e+00
-9.658725738525390625e+00,2.993400001525878906e+01,2.909423589706420898e+00
1.208545565605163574e+00,3.027702140808105469e+01,4.714152336120605469e+00
-1.992553329467773438e+01,2.757269859313964844e+01,1.205637931823730469e+00
-2.889695549011230469e+01,2.335289955139160156e+01,-2.818813323974609375e-01
-1.049184989929199219e+01,2.967711067199707031e+01,8.406227111816406250e+00
2.808835208415985107e-01,3.001716423034667969e+01,1.019525527954101562e+01
-2.066938400268554688e+01,2.733626556396484375e+01,6.717256069183349609e+00
-2.956293869018554688e+01,2.315323257446289062e+01,5.242647647857666016e+00
-1.125476455688476562e+01,2.922127151489257812e+01,1.384664249420166016e+01
-6.486655473709106445e-01,2.955598258972167969e+01,1.560799789428710938e+01
-2.127483177185058594e+01,2.691664505004882812e+01,1.218380355834960938e+01
-3.003055381774902344e+01,2.279820060729980469e+01,1.073204898834228516e+01
-1.194241237640380859e+01,2.857008934020996094e+01,1.919459342956542969e+01
-1.573883891105651855e+00,2.889737129211425781e+01,2.091649627685546875e+01
-2.173802757263183594e+01,2.631713485717773438e+01,1.756900215148925781e+01
-3.029775810241699219e+01,2.229103660583496094e+01,1.614974403381347656e+01
-1.255026054382324219e+01,2.772803497314453125e+01,2.441418266296386719e+01
-2.488572597503662109e+00,2.804560852050781250e+01,2.608512687683105469e+01
-2.205601882934570312e+01,2.554175758361816406e+01,2.283669281005859375e+01
-3.036231803894042969e+01,2.163477325439453125e+01,2.145945549011230469e+01
5.274966716766357422e+00,1.479806900024414062e+00,-6.748658752441406250e+01
2.297931671142578125e+00,4.223330497741699219e+00,-6.683211517333984375e+01
1.168000817298889160e+00,2.512469291687011719e+00,-6.701876068115234375e+01
6.918422579765319824e-01,6.298066973686218262e-01,-6.709671020507812500e+01
-7.265396118164062500e-01,5.600632667541503906e+00,-6.573424530029296875e+01
-2.221300601959228516e+00,3.337350368499755859e+00,-6.598115539550781250e+01
-2.851237773895263672e+00,8.467930555343627930e-01,-6.608428192138671875e+01
-3.746173620223999023e+00,6.940525054931640625e+00,-6.419707489013671875e+01
-5.595876216888427734e+00,4.139941215515136719e+00,-6.450260162353515625e+01
-6.375304698944091797e+00,1.058122992515563965e+00,-6.463021087646484375e+01
-6.740831375122070312e+00,8.234004020690917969e+00,-6.223095321655273438e+01
-8.933062553405761719e+00,4.914870262145996094e+00,-6.259306716918945312e+01
-9.856783866882324219e+00,1.262383460998535156e+00,-6.274428939819335938e+01
-9.690309524536132812e+00,9.472359657287597656e+00,-5.984761428833007812e+01
-1.221019935607910156e+01,5.656833648681640625e+00,-6.026384735107421875e+01
-1.327211570739746094e+01,1.458176136016845703e+00,-6.043769836425781250e+01
-1.257502079010009766e+01,1.064735794067382812e+01,-5.706424713134765625e+01
-1.540593338012695312e+01,6.361015319824218750e+00,-5.753185653686523438e+01
-1.659881782531738281e+01,1.644227743148803711e+00,-5.772714614868164062e+01
-1.537561893463134766e+01,1.175126457214355469e+01,-5.389958953857421875e+01
-1.849865531921386719e+01,7.022681236267089844e+00,-5.441545104980468750e+01
-1.981467056274414062e+01,1.819296956062316895e+00,-5.463089752197265625e+01
-1.807320594787597656e+01,1.277631473541259766e+01,-5.037371063232421875e+01
-2.146731758117675781e+01,7.637269496917724609e+00,-5.093434524536132812e+01
-2.289750480651855469e+01,1.982159018516540527e+00,-5.116848754882812500e+01
-2.064991760253906250e+01,1.371601295471191406e+01,-4.651115417480468750e+01
-2.429248046875000000e+01,8.200816154479980469e+00,-4.711283111572265625e+01
-2.582742691040039062e+01,2.131781339645385742e+00,-4.736412048339843750e+01
-2.308870887756347656e+01,1.456409358978271484e+01,-4.233778762817382812e+01
-2.695537567138671875e+01,8.709563255310058594e+00,-4.297647857666015625e+01
-2.858473396301269531e+01,2.267156362533569336e+00,-4.324322509765625000e+01
-2.537287712097167969e+01,1.531450843811035156e+01,-3.788057708740234375e+01
-2.943760490417480469e+01,9.159920692443847656e+00,-3.855198669433593750e+01
-3.115057754516601562e+01,2.387343168258666992e+00,-3.883242034912109375e+01
-2.748725509643554688e+01,1.596256256103515625e+01,-3.317030715942382812e+01
-3.172322273254394531e+01,9.549063682556152344e+00,-3.387000274658203125e+01
-3.350812530517578125e+01,2.491569042205810547e+00,-3.416221618652343750e+01
-2.941815376281738281e+01,1.650394630432128906e+01,-2.823830795288085938e+01
-3.379662322998046875e+01,9.874448776245117188e+00,-2.896154022216796875e+01
